# .PCD v0.7 - Point Cloud Data file format
VERSION 0.7
FIELDS x y z
SIZE 4 4 4
TYPE F F F
COUNT 1 1 1
WIDTH 1711
HEIGHT 1
VIEWPOINT 0 0 0 1 0 0 0
POINTS 1711
DATA ascii
-0.03398307 0.1155061 0.581
-0.0143184 0.1155061 0.581
-0.01129307 0.1155061 0.581
-0.009780401 0.1155061 0.581
-0.09448975 0.1170188 0.581
-0.08692641 0.1170188 0.581
-0.006755068 0.1170188 0.581
-0.09448975 0.1185315 0.581
-0.08238841 0.1185315 0.581
-0.0370084 0.1185315 0.581
-0.09448975 0.1200441 0.581
-0.07785042 0.1200441 0.581
-0.03852107 0.1200441 0.581
-0.003729734 0.1200441 0.581
-0.09448975 0.1215568 0.581
-0.07331241 0.1215568 0.581
-0.002217067 0.1215568 0.581
-0.07028708 0.1230695 0.581
-0.0415464 0.1230695 0.581
-0.002217067 0.1230695 0.581
-0.09297708 0.1245821 0.581
-0.04305907 0.1245821 0.581
-0.0007044001 0.1245821 0.581
0.0008082667 0.1260948 0.581
-0.09146442 0.1276075 0.581
-0.05364774 0.1276075 0.581
-0.05213507 0.1276075 0.581
-0.05062241 0.1276075 0.581
-0.04910974 0.1276075 0.581
0.002320934 0.1276075 0.581
-0.08995175 0.1291201 0.581
0.005346267 0.1291201 0.581
0.03408694 0.1291201 0.581
0.04770094 0.1291201 0.581
0.006858934 0.1306328 0.581
0.008371601 0.1306328 0.581
0.02954894 0.1306328 0.581
0.0310616 0.1306328 0.581
0.05375161 0.1306328 0.581
0.05526428 0.1306328 0.581
0.05677694 0.1306328 0.581
0.05828961 0.1306328 0.581
0.006858934 0.1321455 0.581
0.008371601 0.1321455 0.581
0.009884268 0.1321455 0.581
0.01139693 0.1321455 0.581
0.0129096 0.1321455 0.581
0.02803627 0.1321455 0.581
0.06282761 0.1321455 0.581
-0.08541375 0.1336581 0.581
0.0129096 0.1336581 0.581
0.01442227 0.1336581 0.581
0.01593494 0.1336581 0.581
0.0265236 0.1336581 0.581
0.06585294 0.1336581 0.581
0.003833601 0.1351708 0.581
0.005346267 0.1351708 0.581
0.01593494 0.1351708 0.581
0.0174476 0.1351708 0.581
0.01896027 0.1351708 0.581
0.02047294 0.1351708 0.581
0.02349827 0.1351708 0.581
0.02501094 0.1351708 0.581
0.0265236 0.1351708 0.581
0.0008082667 0.1366835 0.581
0.002320934 0.1366835 0.581
0.003833601 0.1366835 0.581
0.005346267 0.1366835 0.581
0.006858934 0.1366835 0.581
0.008371601 0.1366835 0.581
0.01593494 0.1366835 0.581
0.0174476 0.1366835 0.581
0.01896027 0.1366835 0.581
0.02047294 0.1366835 0.581
0.0219856 0.1366835 0.581
0.02349827 0.1366835 0.581
0.02501094 0.1366835 0.581
0.0265236 0.1366835 0.581
-0.08087574 0.1381961 0.581
0.0008082667 0.1381961 0.581
0.002320934 0.1381961 0.581
0.003833601 0.1381961 0.581
0.006858934 0.1381961 0.581
0.008371601 0.1381961 0.581
0.009884268 0.1381961 0.581
0.01139693 0.1381961 0.581
0.0129096 0.1381961 0.581
0.01593494 0.1381961 0.581
0.0174476 0.1381961 0.581
0.01896027 0.1381961 0.581
0.02047294 0.1381961 0.581
0.0219856 0.1381961 0.581
0.02349827 0.1381961 0.581
0.02501094 0.1381961 0.581
-0.0007044001 0.1397088 0.581
0.0008082667 0.1397088 0.581
0.01139693 0.1397088 0.581
0.0129096 0.1397088 0.581
0.01442227 0.1397088 0.581
0.01593494 0.1397088 0.581
0.0174476 0.1397088 0.581
0.01896027 0.1397088 0.581
0.02047294 0.1397088 0.581
0.0219856 0.1397088 0.581
0.02349827 0.1397088 0.581
0.02501094 0.1397088 0.581
0.05223894 0.1397088 0.581
0.07039094 0.1397088 0.581
0.01593494 0.1412215 0.581
0.0174476 0.1412215 0.581
0.01896027 0.1412215 0.581
0.02047294 0.1412215 0.581
0.0219856 0.1412215 0.581
0.02349827 0.1412215 0.581
0.02501094 0.1412215 0.581
0.07039094 0.1412215 0.581
0.07190361 0.1427341 0.581
-0.03258218 0.112868 0.583
-0.0310643 0.112868 0.583
-0.02949575 0.1126744 0.582
-0.02798048 0.1126744 0.582
-0.02651068 0.112868 0.583
-0.02499281 0.112868 0.583
-0.02347494 0.112868 0.583
-0.02195706 0.112868 0.583
-0.02043919 0.112868 0.583
-0.09633289 0.1143859 0.583
-0.09481501 0.1143859 0.583
-0.09329713 0.1143859 0.583
-0.03561793 0.1143859 0.583
-0.03404156 0.1141897 0.582
-0.01737359 0.1141897 0.582
-0.01588556 0.1143859 0.583
-0.01436769 0.1143859 0.583
-0.01284982 0.1143859 0.583
-0.09633289 0.1159037 0.583
-0.09010657 0.1157049 0.582
-0.08874351 0.1159037 0.583
-0.0371358 0.1159037 0.583
-0.03555683 0.1157049 0.582
-0.008281965 0.1157049 0.582
-0.09616765 0.1172202 0.582
-0.08570777 0.1174216 0.583
-0.0370721 0.1172202 0.582
-0.005260447 0.1174216 0.583
-0.09616765 0.1187355 0.582
-0.08115414 0.1189395 0.583
-0.03865367 0.1189395 0.583
-0.003742573 0.1189395 0.583
-0.09633289 0.1204574 0.583
-0.07660052 0.1204574 0.583
-0.002224699 0.1204574 0.583
-0.04010264 0.121766 0.582
-0.0007068249 0.1219752 0.583
-0.09481501 0.1234931 0.583
-0.06901115 0.1234931 0.583
-0.0007056125 0.1232813 0.582
-0.06586224 0.1247966 0.582
0.000811049 0.125011 0.583
-0.09329713 0.1265289 0.583
-0.06131643 0.1263118 0.582
-0.05990391 0.1265289 0.583
-0.04624304 0.1265289 0.583
0.002324928 0.1263118 0.582
0.003840199 0.1278271 0.582
0.005364671 0.1280467 0.583
0.03724002 0.1280467 0.583
0.0387579 0.1280467 0.583
0.04027577 0.1280467 0.583
0.04179364 0.1280467 0.583
0.04331152 0.1280467 0.583
0.04482939 0.1280467 0.583
-0.09177926 0.1295646 0.583
0.006870739 0.1293424 0.582
0.008400419 0.1295646 0.583
0.009918293 0.1295646 0.583
0.03116853 0.1295646 0.583
0.03263034 0.1293424 0.582
0.04929831 0.1293424 0.582
0.05090089 0.1295646 0.583
0.05241876 0.1295646 0.583
0.009901281 0.1308576 0.582
0.0599052 0.1308576 0.582
-0.09026138 0.1310825 0.583
0.01143617 0.1310825 0.583
0.01295404 0.1310825 0.583
0.01447191 0.1310825 0.583
0.02813278 0.1310825 0.583
0.06152601 0.1310825 0.583
-0.08859129 0.1323729 0.582
0.01444709 0.1323729 0.582
0.01598979 0.1326004 0.583
0.01750766 0.1326004 0.583
0.02509703 0.1326004 0.583
0.02656926 0.1323729 0.582
0.06456175 0.1326004 0.583
0.01747763 0.1338882 0.582
0.0189929 0.1338882 0.582
0.02353871 0.1338882 0.582
0.02505398 0.1338882 0.582
-0.08722564 0.1341182 0.583
0.02054341 0.1341182 0.583
0.02206128 0.1341182 0.583
-0.08570777 0.1356361 0.583
-0.08404548 0.1354035 0.582
0.02202344 0.1354035 0.582
0.06748156 0.1354035 0.582
-0.08253022 0.1369187 0.582
0.06899682 0.1369187 0.582
0.005355469 0.138434 0.582
0.07063325 0.1386718 0.583
0.002324928 0.1399493 0.582
0.003840199 0.1399493 0.582
0.009901281 0.1399493 0.582
0.07215112 0.1401897 0.583
0.07202737 0.1414645 0.582
-0.03415854 0.1115411 0.5840001
-0.03263807 0.1115411 0.5840001
-0.03111759 0.1115411 0.5840001
-0.02959711 0.1115411 0.5840001
-0.02807663 0.1115411 0.5840001
-0.02655616 0.1115411 0.5840001
-0.02503568 0.1115411 0.5840001
-0.0235152 0.1115411 0.5840001
-0.03567902 0.1130616 0.5840001
-0.03415854 0.1130616 0.5840001
-0.01895377 0.1130616 0.5840001
-0.01743329 0.1130616 0.5840001
-0.09193669 0.1145821 0.5840001
-0.0371995 0.1145821 0.5840001
-0.01135138 0.1145821 0.5840001
-0.09801861 0.1161026 0.5840001
-0.006789948 0.1161026 0.5840001
-0.09801861 0.117623 0.5840001
-0.03871997 0.117623 0.5840001
-0.09801861 0.1191435 0.5840001
-0.07977287 0.1191435 0.5840001
-0.04024046 0.120664 0.5840001
-0.09649812 0.1221845 0.5840001
-0.07217048 0.1221845 0.5840001
0.0008124403 0.1237049 0.5840001
-0.09497765 0.1252254 0.5840001
-0.06456809 0.1252254 0.5840001
-0.04480189 0.1252254 0.5840001
0.002332918 0.1252254 0.5840001
-0.05848619 0.1267459 0.5840001
-0.04784285 0.1267459 0.5840001
0.003853396 0.1267459 0.5840001
-0.09345717 0.1282664 0.5840001
0.006894351 0.1282664 0.5840001
0.03578342 0.1282664 0.5840001
0.04642677 0.1282664 0.5840001
0.01145578 0.1297869 0.5840001
0.02970152 0.1297869 0.5840001
0.05402916 0.1297869 0.5840001
0.05554964 0.1297869 0.5840001
-0.09193669 0.1313073 0.5840001
0.01601722 0.1313073 0.5840001
0.02514008 0.1313073 0.5840001
0.02666056 0.1313073 0.5840001
0.06315202 0.1313073 0.5840001
-0.09041622 0.1328278 0.5840001
0.01905817 0.1328278 0.5840001
0.02057865 0.1328278 0.5840001
0.02209913 0.1328278 0.5840001
0.0236196 0.1328278 0.5840001
-0.08889574 0.1343483 0.5840001
0.06771345 0.1343483 0.5840001
-0.08737526 0.1358688 0.5840001
0.06923393 0.1358688 0.5840001
0.07075441 0.1373892 0.5840001
0.07227489 0.1389097 0.5840001
-0.03574011 0.110209 0.585
-0.03421703 0.110209 0.585
-0.03269395 0.110209 0.585
-0.03117087 0.110209 0.585
-0.02964779 0.110209 0.585
-0.02812471 0.110209 0.585
-0.02660163 0.110209 0.585
-0.02507855 0.110209 0.585
-0.03574011 0.1117321 0.585
-0.02203238 0.1117321 0.585
-0.0205093 0.1117321 0.585
-0.09818644 0.1132552 0.585
-0.09666336 0.1132552 0.585
-0.09514028 0.1132552 0.585
-0.09361719 0.1132552 0.585
-0.0372632 0.1132552 0.585
-0.01594006 0.1132552 0.585
-0.01441698 0.1132552 0.585
-0.09818644 0.1147783 0.585
-0.09057104 0.1147783 0.585
-0.03878628 0.1147783 0.585
-0.009847736 0.1147783 0.585
-0.08752487 0.1163014 0.585
-0.03878628 0.1163014 0.585
-0.08447871 0.1178244 0.585
-0.003755412 0.1178244 0.585
-0.04030936 0.1193475 0.585
-0.002232331 0.1193475 0.585
-0.09818644 0.1208706 0.585
-0.07534023 0.1208706 0.585
-0.04183244 0.1223937 0.585
-0.09666336 0.1239168 0.585
-0.06772482 0.1239168 0.585
-0.04335552 0.1239168 0.585
-0.09514028 0.1269629 0.585
-0.05706325 0.1269629 0.585
-0.05554017 0.1269629 0.585
-0.04944785 0.1269629 0.585
0.005383075 0.1269629 0.585
0.008429238 0.128486 0.585
0.03279854 0.128486 0.585
0.03432162 0.128486 0.585
0.04802935 0.128486 0.585
0.04955243 0.128486 0.585
-0.09361719 0.1300091 0.585
0.01299848 0.1300091 0.585
0.02822929 0.1300091 0.585
0.05716783 0.1300091 0.585
0.01756772 0.1315322 0.585
0.01909081 0.1315322 0.585
0.02061389 0.1315322 0.585
0.02213697 0.1315322 0.585
0.02366005 0.1315322 0.585
-0.09209412 0.1330553 0.585
0.06630632 0.1330553 0.585
-0.09057104 0.1345783 0.585
-0.03732689 0.1088717 0.586
-0.03580121 0.1088717 0.586
-0.03427552 0.1088717 0.586
-0.03274984 0.1088717 0.586
-0.03122416 0.1088717 0.586
-0.02969847 0.1088717 0.586
-0.02817279 0.1088717 0.586
-0.03732689 0.1103974 0.586
-0.02359573 0.1103974 0.586
-0.09682859 0.1119231 0.586
-0.03885258 0.1119231 0.586
-0.03732689 0.1119231 0.586
-0.01901868 0.1119231 0.586
-0.09987997 0.1134488 0.586
-0.09225155 0.1134488 0.586
-0.03885258 0.1134488 0.586
-0.01291594 0.1134488 0.586
-0.09987997 0.1149745 0.586
-0.08920017 0.1149745 0.586
-0.008338885 0.1149745 0.586
-0.09987997 0.1165002 0.586
-0.04037827 0.1165002 0.586
-0.005287516 0.1165002 0.586
-0.09987997 0.1180259 0.586
-0.08309744 0.1180259 0.586
-0.04037827 0.1180259 0.586
-0.09987997 0.1195515 0.586
-0.07852038 0.1195515 0.586
-0.07394332 0.1210772 0.586
-0.0007104621 0.1210772 0.586
-0.09835428 0.1226029 0.586
-0.07089195 0.1226029 0.586
0.0008152226 0.1226029 0.586
0.002340907 0.1241286 0.586
-0.09682859 0.1256543 0.586
-0.06326354 0.1256543 0.586
-0.046481 0.1256543 0.586
0.003866592 0.1256543 0.586
-0.05410942 0.12718 0.586
-0.05258374 0.12718 0.586
-0.05105806 0.12718 0.586
0.006917961 0.12718 0.586
0.04200871 0.12718 0.586
-0.09530291 0.1287056 0.586
0.00996933 0.1287056 0.586
0.03132892 0.1287056 0.586
0.01454639 0.1302313 0.586
0.02675186 0.1302313 0.586
0.05879124 0.1302313 0.586
0.06031692 0.1302313 0.586
-0.09377722 0.131757 0.586
0.06489398 0.131757 0.586
-0.09225155 0.1348084 0.586
0.06947103 0.1348084 0.586
0.07099672 0.1363341 0.586
0.0725224 0.1378597 0.586
-0.03898518 0.1061815 0.588
-0.03745429 0.1061815 0.588
-0.0359234 0.1061815 0.588
-0.0343925 0.1061815 0.588
-0.04051607 0.1077124 0.588
-0.03898518 0.1077124 0.588
-0.03739059 0.1075292 0.587
-0.0358623 0.1075292 0.587
-0.03433402 0.1075292 0.587
-0.03280573 0.1075292 0.587
-0.03127744 0.1075292 0.587
-0.02979983 0.1077124 0.588
-0.04051607 0.1092433 0.588
-0.03891888 0.1090575 0.587
-0.02669257 0.1090575 0.587
-0.02520715 0.1092433 0.588
-0.04051607 0.1107742 0.588
-0.03891888 0.1105858 0.587
-0.02210771 0.1105858 0.587
-0.02061448 0.1107742 0.588
-0.1017517 0.1123051 0.588
-0.1000504 0.1121141 0.587
-0.09852212 0.1121141 0.587
-0.09562817 0.1123051 0.588
-0.09409728 0.1123051 0.588
-0.04051607 0.1123051 0.588
-0.01752284 0.1121141 0.587
-0.0160218 0.1123051 0.588
-0.1017517 0.113836 0.588
-0.0910355 0.113836 0.588
-0.04051607 0.113836 0.588
-0.01140969 0.1136424 0.587
-0.1017517 0.1153669 0.588
-0.04044717 0.1151707 0.587
-0.006836453 0.1153669 0.588
-0.1017517 0.1168978 0.588
-0.08629581 0.116699 0.587
-0.04204696 0.1168978 0.588
-0.1017517 0.1184287 0.588
-0.08185014 0.1184287 0.588
-0.04204696 0.1184287 0.588
-0.002243778 0.1184287 0.588
-0.07725747 0.1199595 0.588
-0.04204696 0.1199595 0.588
-0.0007128869 0.1199595 0.588
-0.1002209 0.1214904 0.588
-0.04197545 0.1212838 0.587
-0.06960301 0.1230213 0.588
-0.04357785 0.1230213 0.588
0.002348897 0.1230213 0.588
-0.09868996 0.1245522 0.588
-0.06642807 0.1243404 0.587
-0.04503203 0.1243404 0.587
0.003879788 0.1245522 0.588
-0.0618432 0.1258687 0.587
0.005401478 0.1258687 0.587
-0.06041766 0.1260831 0.588
-0.04817053 0.1260831 0.588
-0.09715907 0.127614 0.588
0.008458055 0.127397 0.587
0.03602852 0.127614 0.588
0.0375594 0.127614 0.588
0.03902382 0.127397 0.587
0.04055211 0.127397 0.587
0.04360868 0.127397 0.587
0.04521386 0.127614 0.588
0.04674475 0.127614 0.588
0.01151463 0.1289253 0.587
0.05277841 0.1289253 0.587
0.01306514 0.1291449 0.588
0.02990495 0.1291449 0.588
-0.09546554 0.1304536 0.587
0.0160995 0.1304536 0.587
0.01762778 0.1304536 0.587
0.01918871 0.1306758 0.588
0.0207196 0.1306758 0.588
0.02225049 0.1306758 0.588
0.02378138 0.1306758 0.588
0.02526922 0.1304536 0.587
0.06194814 0.1304536 0.587
-0.09562817 0.1322067 0.588
0.06664634 0.1322067 0.588
-0.09393725 0.1335101 0.587
0.06817724 0.1337376 0.588
-0.03905148 0.1048286 0.589
-0.04211847 0.1063621 0.589
-0.04058498 0.1063621 0.589
-0.0329175 0.1063621 0.589
-0.03138401 0.1063621 0.589
-0.04365197 0.1078956 0.589
-0.04211847 0.1078956 0.589
-0.02831702 0.1078956 0.589
-0.04365197 0.1094291 0.589
-0.04211847 0.1094291 0.589
-0.02371653 0.1094291 0.589
-0.1019248 0.1109626 0.589
-0.1003913 0.1109626 0.589
-0.09885781 0.1109626 0.589
-0.0973243 0.1109626 0.589
-0.04365197 0.1109626 0.589
-0.04211847 0.1109626 0.589
-0.01911604 0.1109626 0.589
-0.1034583 0.1124961 0.589
-0.04211847 0.1124961 0.589
-0.01451556 0.1124961 0.589
-0.1034583 0.1140296 0.589
-0.04211847 0.1140296 0.589
-0.009915071 0.1140296 0.589
-0.1034583 0.1155631 0.589
-0.08812333 0.1155631 0.589
-0.04211847 0.1155631 0.589
-0.08505635 0.1170966 0.589
-0.00378109 0.1170966 0.589
-0.1019248 0.1201636 0.589
-0.07278838 0.1216971 0.589
-0.04365197 0.1216971 0.589
0.0008193961 0.1216971 0.589
-0.1003913 0.1232306 0.589
-0.06512091 0.1247641 0.589
-0.04671896 0.1247641 0.589
-0.09885781 0.1262975 0.589
-0.05898692 0.1262975 0.589
-0.04978595 0.1262975 0.589
0.006953377 0.1262975 0.589
0.01002037 0.1278311 0.589
0.0330228 0.1278311 0.589
0.0345563 0.1278311 0.589
0.04835775 0.1278311 0.589
0.04989124 0.1278311 0.589
-0.0973243 0.1293646 0.589
0.01462085 0.1293646 0.589
0.02688882 0.1293646 0.589
0.02842231 0.1293646 0.589
0.05602523 0.1293646 0.589
0.05755872 0.1293646 0.589
-0.0973243 0.130898 0.589
0.0636927 0.130898 0.589
0.06982669 0.133965 0.589
0.07136019 0.1354985 0.589
-0.04372608 0.1050066 0.59
-0.04218998 0.1050066 0.59
-0.04065388 0.1050066 0.59
-0.03758169 0.1050066 0.59
-0.03604558 0.1050066 0.59
-0.03450949 0.1050066 0.59
-0.04372608 0.1065427 0.59
-0.02990119 0.1065427 0.59
-0.04526218 0.1080788 0.59
-0.02682899 0.1080788 0.59
-0.1036339 0.1096149 0.59
-0.1020978 0.1096149 0.59
-0.1005617 0.1096149 0.59
-0.09902564 0.1096149 0.59
-0.04526218 0.1096149 0.59
-0.0222207 0.1096149 0.59
-0.1036339 0.111151 0.59
-0.09595344 0.111151 0.59
-0.04526218 0.111151 0.59
-0.0176124 0.111151 0.59
-0.09288125 0.1126871 0.59
-0.04372608 0.1126871 0.59
-0.0130041 0.1126871 0.59
-0.08980905 0.1142232 0.59
-0.04372608 0.1142232 0.59
-0.008395807 0.1142232 0.59
-0.04372608 0.1157593 0.59
-0.005323608 0.1157593 0.59
-0.1036339 0.1172954 0.59
-0.04372608 0.1172954 0.59
-0.08059246 0.1188315 0.59
-0.04372608 0.1188315 0.59
-0.07598416 0.1203676 0.59
-0.04372608 0.1203676 0.59
-0.1020978 0.1219037 0.59
-0.06830367 0.1234398 0.59
-0.04526218 0.1234398 0.59
-0.1005617 0.1249759 0.59
0.005429084 0.1249759 0.59
-0.05755097 0.126512 0.59
-0.05601487 0.126512 0.59
-0.05294267 0.126512 0.59
-0.05140658 0.126512 0.59
0.008501282 0.126512 0.59
-0.09902564 0.1280481 0.59
0.01157348 0.1280481 0.59
0.03154277 0.1280481 0.59
0.05151205 0.1280481 0.59
0.05304815 0.1280481 0.59
0.01618178 0.1295842 0.59
0.01771788 0.1295842 0.59
0.02539837 0.1295842 0.59
0.06840914 0.1326564 0.59
-0.04380019 0.1036459 0.591
-0.04226149 0.1036459 0.591
-0.04072279 0.1036459 0.591
-0.04533889 0.1051846 0.591
-0.04533889 0.1067233 0.591
-0.1022709 0.108262 0.591
-0.02533576 0.108262 0.591
-0.09765477 0.1098007 0.591
-0.02071965 0.1098007 0.591
-0.1053483 0.1113394 0.591
-0.1053483 0.1128781 0.591
-0.01148744 0.1128781 0.591
-0.1053483 0.1144168 0.591
-0.08688387 0.1159555 0.591
-0.08380646 0.1174942 0.591
-0.1038096 0.1190329 0.591
-0.07919035 0.1190329 0.591
-0.07149684 0.1221103 0.591
0.003899583 0.123649 0.591
-0.06380332 0.1251877 0.591
-0.05457111 0.1267264 0.591
-0.09919348 0.1298038 0.591
0.02236401 0.1298038 0.591
0.02390271 0.1298038 0.591
0.05929287 0.1298038 0.591
0.06083157 0.1298038 0.591
0.06544768 0.1313425 0.591
-0.0438743 0.1022799 0.592
-0.04695692 0.1038212 0.592
-0.04541561 0.1038212 0.592
-0.03925039 0.1038212 0.592
-0.03770908 0.1038212 0.592
-0.04695692 0.1053625 0.592
-0.03308516 0.1053625 0.592
-0.04695692 0.1069039 0.592
-0.02846124 0.1069039 0.592
-0.1055265 0.1084452 0.592
-0.1039852 0.1084452 0.592
-0.1009026 0.1084452 0.592
-0.09936132 0.1084452 0.592
-0.04695692 0.1084452 0.592
-0.02383733 0.1084452 0.592
-0.1055265 0.1099865 0.592
-0.0962787 0.1099865 0.592
-0.04695692 0.1099865 0.592
-0.0947374 0.1115278 0.592
-0.0161308 0.1115278 0.592
-0.09165478 0.1130691 0.592
-0.04541561 0.1130691 0.592
-0.04541561 0.1146104 0.592
-0.1055265 0.1161517 0.592
-0.04541561 0.1161517 0.592
-0.04541561 0.117693 0.592
-0.04541561 0.1192343 0.592
-0.0007177364 0.1192343 0.592
-0.1039852 0.1207756 0.592
-0.07470042 0.1207756 0.592
0.0008235695 0.1207756 0.592
-0.04541561 0.1223169 0.592
0.002364876 0.1223169 0.592
-0.1024439 0.1238582 0.592
-0.04849822 0.1253995 0.592
0.006988793 0.1253995 0.592
-0.1009026 0.1269408 0.592
0.03781491 0.1269408 0.592
0.03935622 0.1269408 0.592
0.04089752 0.1269408 0.592
0.04243883 0.1269408 0.592
0.04398014 0.1269408 0.592
0.01315402 0.1284821 0.592
0.02856708 0.1284821 0.592
0.03010838 0.1284821 0.592
0.05476928 0.1284821 0.592
0.01931924 0.1300234 0.592
0.02086055 0.1300234 0.592
0.06247581 0.1300234 0.592
0.06709972 0.1315648 0.592
-0.04858015 0.1024527 0.5930001
-0.04703624 0.1024527 0.5930001
-0.04549232 0.1024527 0.5930001
-0.04240451 0.1024527 0.5930001
-0.0408606 0.1024527 0.5930001
-0.04858015 0.1039966 0.5930001
-0.03622887 0.1039966 0.5930001
-0.04858015 0.1055405 0.5930001
-0.03159714 0.1055405 0.5930001
-0.03005323 0.1055405 0.5930001
-0.1057048 0.1070844 0.5930001
-0.1041609 0.1070844 0.5930001
-0.102617 0.1070844 0.5930001
-0.04858015 0.1070844 0.5930001
-0.02696541 0.1070844 0.5930001
-0.1072487 0.1086283 0.5930001
-0.09798525 0.1086283 0.5930001
-0.1072487 0.1101723 0.5930001
-0.01924586 0.1101723 0.5930001
-0.1072487 0.1117162 0.5930001
-0.09335353 0.1117162 0.5930001
-0.04703624 0.1117162 0.5930001
-0.01461414 0.1117162 0.5930001
-0.1072487 0.1132601 0.5930001
-0.04703624 0.1132601 0.5930001
-0.009982406 0.1132601 0.5930001
-0.1072487 0.114804 0.5930001
-0.0887218 0.114804 0.5930001
-0.04703624 0.114804 0.5930001
-0.006894587 0.114804 0.5930001
-0.08563398 0.1163479 0.5930001
-0.1057048 0.1178918 0.5930001
-0.08254616 0.1178918 0.5930001
-0.1057048 0.1194357 0.5930001
-0.07791443 0.1194357 0.5930001
-0.04549232 0.1209796 0.5930001
-0.1041609 0.1225235 0.5930001
-0.07019488 0.1225235 0.5930001
-0.06710706 0.1240674 0.5930001
-0.04703624 0.1240674 0.5930001
-0.102617 0.1256114 0.5930001
-0.06247533 0.1256114 0.5930001
0.01008842 0.1271553 0.5930001
0.03479097 0.1271553 0.5930001
0.03633488 0.1271553 0.5930001
0.04559834 0.1271553 0.5930001
0.04714225 0.1271553 0.5930001
0.01472015 0.1286992 0.5930001
0.02707143 0.1286992 0.5930001
0.05640571 0.1286992 0.5930001
0.05794962 0.1286992 0.5930001
-0.05020858 0.101079 0.594
-0.04866207 0.101079 0.594
-0.04711556 0.101079 0.594
-0.0517551 0.1026255 0.594
-0.05020858 0.1026255 0.594
-0.03938299 0.1026255 0.594
-0.05020858 0.104172 0.594
-0.03474345 0.104172 0.594
-0.1089761 0.1057185 0.594
-0.1074296 0.1057185 0.594
-0.1058831 0.1057185 0.594
-0.1043365 0.1057185 0.594
-0.10279 0.1057185 0.594
-0.05020858 0.1057185 0.594
-0.1089761 0.107265 0.594
-0.1074296 0.107265 0.594
-0.1012435 0.107265 0.594
-0.099697 0.107265 0.594
-0.02546437 0.107265 0.594
-0.1089761 0.1088115 0.594
-0.04866207 0.1088115 0.594
-0.02237134 0.1088115 0.594
-0.1089761 0.110358 0.594
-0.09505746 0.110358 0.594
-0.04866207 0.110358 0.594
-0.01773181 0.110358 0.594
-0.01309227 0.1119046 0.594
-0.09041792 0.1134511 0.594
-0.1074296 0.1165441 0.594
-0.04711556 0.1165441 0.594
-0.04711556 0.1180906 0.594
-0.04711556 0.1196371 0.594
-0.1058831 0.1211836 0.594
-0.07340628 0.1211836 0.594
-0.1043365 0.1242767 0.594
-0.06567372 0.1242767 0.594
0.005465891 0.1242767 0.594
-0.06103417 0.1258232 0.594
-0.05948766 0.1258232 0.594
-0.05794115 0.1258232 0.594
-0.05020858 0.1258232 0.594
0.008558918 0.1258232 0.594
-0.10279 0.1273697 0.594
0.01165194 0.1273697 0.594
0.03330313 0.1273697 0.594
0.04876826 0.1273697 0.594
0.017838 0.1289162 0.594
0.02402405 0.1289162 0.594
0.02557056 0.1289162 0.594
0.05959385 0.1289162 0.594
0.06423339 0.1304627 0.594
-0.05803869 0.09970001 0.595
-0.05648957 0.09970001 0.595
-0.05494046 0.09970001 0.595
-0.1122578 0.1012491 0.595
-0.1107087 0.1012491 0.595
-0.1091595 0.1012491 0.595
-0.05339134 0.1012491 0.595
-0.05184222 0.1012491 0.595
-0.04564575 0.1012491 0.595
-0.1122578 0.1027982 0.595
-0.1107087 0.1027982 0.595
-0.1091595 0.1027982 0.595
-0.1076104 0.1027982 0.595
-0.1107087 0.1043474 0.595
-0.1091595 0.1043474 0.595
-0.1076104 0.1043474 0.595
-0.1060613 0.1043474 0.595
-0.1045122 0.1043474 0.595
-0.1107087 0.1058965 0.595
-0.1107087 0.1074456 0.595
-0.05029311 0.1074456 0.595
-0.1107087 0.1089947 0.595
-0.09676661 0.1089947 0.595
-0.1091595 0.1120929 0.595
-0.04874399 0.1120929 0.595
-0.1091595 0.1136421 0.595
-0.04874399 0.1136421 0.595
-0.1076104 0.1182894 0.595
-0.08127545 0.1182894 0.595
-0.07662809 0.1198385 0.595
-0.04719487 0.1213876 0.595
-0.1060613 0.1229368 0.595
-0.04719487 0.1229368 0.595
0.003925976 0.1229368 0.595
-0.1045122 0.126035 0.595
-0.05648957 0.126035 0.595
-0.05184222 0.126035 0.595
0.03181008 0.1275841 0.595
0.05039947 0.1275841 0.595
0.01941714 0.1291332 0.595
0.02096626 0.1291332 0.595
0.02251538 0.1291332 0.595
-0.1064178 0.09226352 0.597
-0.1048635 0.09226352 0.597
-0.1033092 0.09226352 0.597
-0.1017548 0.09226352 0.597
-0.1002005 0.09226352 0.597
-0.09864619 0.09226352 0.597
-0.09553754 0.09226352 0.597
-0.09398323 0.09226352 0.597
-0.0924289 0.09226352 0.597
-0.1095265 0.09381784 0.597
-0.1079721 0.09381784 0.597
-0.1064178 0.09381784 0.597
-0.1048635 0.09381784 0.597
-0.1033092 0.09381784 0.597
-0.1002005 0.09381784 0.597
-0.1110808 0.09537216 0.597
-0.1095265 0.09537216 0.597
-0.1079721 0.09537216 0.597
-0.1064178 0.09537216 0.597
-0.1048635 0.09537216 0.597
-0.07688566 0.09537216 0.597
-0.07533133 0.09537216 0.597
-0.07377701 0.09537216 0.597
-0.07222269 0.09537216 0.597
-0.07066836 0.09537216 0.597
-0.1126351 0.09692649 0.597
-0.1110808 0.09692649 0.597
-0.109343 0.09676414 0.596
-0.1079721 0.09692649 0.597
-0.1064178 0.09692649 0.597
-0.1048635 0.09692649 0.597
-0.07533133 0.09692649 0.597
-0.07365344 0.09676414 0.596
-0.07210172 0.09676414 0.596
-0.07054999 0.09676414 0.596
-0.06899828 0.09676414 0.596
-0.06744655 0.09676414 0.596
-0.06600539 0.09692649 0.597
-0.06445107 0.09692649 0.597
-0.06289674 0.09692649 0.597
-0.1141894 0.09848081 0.597
-0.1124464 0.09831586 0.596
-0.1108947 0.09831586 0.596
-0.109343 0.09831586 0.596
-0.1077913 0.09831586 0.596
-0.1062396 0.09831586 0.596
-0.1048635 0.09848081 0.597
-0.1033092 0.09848081 0.597
-0.07377701 0.09848081 0.597
-0.07222269 0.09848081 0.597
-0.07066836 0.09848081 0.597
-0.06899828 0.09831586 0.596
-0.06744655 0.09831586 0.596
-0.06589483 0.09831586 0.596
-0.06434312 0.09831586 0.596
-0.06279139 0.09831586 0.596
-0.06123967 0.09831586 0.596
-0.05968795 0.09831586 0.596
-0.05813624 0.09831586 0.596
-0.05658451 0.09831586 0.596
-0.05512513 0.09848081 0.597
-0.1139982 0.09986757 0.596
-0.1124464 0.09986757 0.596
-0.1108947 0.09986757 0.596
-0.109343 0.09986757 0.596
-0.1077913 0.09986757 0.596
-0.1062396 0.09986757 0.596
-0.06434312 0.09986757 0.596
-0.06279139 0.09986757 0.596
-0.06123967 0.09986757 0.596
-0.05968795 0.09986757 0.596
-0.05348107 0.09986757 0.596
-0.05192935 0.09986757 0.596
-0.05037763 0.09986757 0.596
-0.1157438 0.1000351 0.597
-0.1048635 0.1000351 0.597
-0.1033092 0.1000351 0.597
-0.06911404 0.1000351 0.597
-0.06755972 0.1000351 0.597
-0.06600539 0.1000351 0.597
-0.04890784 0.1000351 0.597
-0.1157438 0.1015895 0.597
-0.1139982 0.1014193 0.596
-0.1077913 0.1014193 0.596
-0.1062396 0.1014193 0.596
-0.1046878 0.1014193 0.596
-0.1033092 0.1015895 0.597
-0.06289674 0.1015895 0.597
-0.06134243 0.1015895 0.597
-0.0597881 0.1015895 0.597
-0.05813624 0.1014193 0.596
-0.05658451 0.1014193 0.596
-0.05503279 0.1014193 0.596
-0.04417075 0.1014193 0.596
-0.04269054 0.1015895 0.597
-0.1139982 0.102971 0.596
-0.1062396 0.102971 0.596
-0.1046878 0.102971 0.596
-0.05348107 0.102971 0.596
-0.03796387 0.102971 0.596
-0.1157438 0.1031438 0.597
-0.1033092 0.1031438 0.597
-0.05667945 0.1031438 0.597
-0.05512513 0.1031438 0.597
-0.03647324 0.1031438 0.597
-0.1157438 0.1046981 0.597
-0.1139982 0.1045227 0.596
-0.1124464 0.1045227 0.596
-0.1031361 0.1045227 0.596
-0.1017548 0.1046981 0.597
-0.05512513 0.1046981 0.597
-0.0535708 0.1046981 0.597
-0.05192935 0.1045227 0.596
-0.03330871 0.1045227 0.596
-0.03181027 0.1046981 0.597
-0.1141894 0.1062524 0.597
-0.1124464 0.1060745 0.596
-0.1015844 0.1060745 0.596
-0.1002005 0.1062524 0.597
-0.0535708 0.1062524 0.597
-0.05192935 0.1060745 0.596
-0.02865355 0.1060745 0.596
-0.0271473 0.1062524 0.597
-0.1124464 0.1076262 0.596
-0.09848095 0.1076262 0.596
-0.05201648 0.1078067 0.597
-0.02403866 0.1078067 0.597
-0.1126351 0.1093611 0.597
-0.09553754 0.1093611 0.597
-0.05201648 0.1093611 0.597
-0.05037763 0.1091779 0.596
-0.02089495 0.1091779 0.596
-0.1126351 0.1109154 0.597
-0.1108947 0.1107296 0.596
-0.09398323 0.1109154 0.597
-0.05037763 0.1107296 0.596
-0.01623979 0.1107296 0.596
-0.1110808 0.1124697 0.597
-0.09227408 0.1122813 0.596
-0.05046216 0.1124697 0.597
-0.01158463 0.1122813 0.596
-0.008481187 0.1138331 0.596
-0.1110808 0.1140241 0.597
-0.05046216 0.1140241 0.597
-0.109343 0.1153848 0.596
-0.08761892 0.1153848 0.596
-0.04882592 0.1153848 0.596
-0.08451547 0.1169365 0.596
-0.04882592 0.1169365 0.596
-0.1095265 0.1171327 0.597
-0.07999431 0.118687 0.597
-0.04890784 0.118687 0.597
-0.1077913 0.1200399 0.596
-0.07533133 0.1202414 0.597
-0.04890784 0.1202414 0.597
0.0008291342 0.1200399 0.596
-0.1079721 0.1217957 0.597
-0.07210172 0.1215917 0.596
0.002380854 0.1215917 0.596
-0.1079721 0.12335 0.597
-0.06899828 0.1231434 0.596
-0.1062396 0.1246951 0.596
-0.06434312 0.1246951 0.596
-0.04882592 0.1246951 0.596
0.007036015 0.1246951 0.596
-0.05503279 0.1262468 0.596
-0.05348107 0.1262468 0.596
0.01015647 0.1264586 0.597
0.03657997 0.1264586 0.597
0.0381343 0.1264586 0.597
0.03968862 0.1264586 0.597
0.04124294 0.1264586 0.597
0.0132429 0.1277985 0.596
0.0287601 0.1277985 0.596
0.03031182 0.1277985 0.596
0.0520359 0.1277985 0.596
0.05358762 0.1277985 0.596
0.05523185 0.128013 0.597
-0.1003684 0.09086114 0.598
-0.09881144 0.09086114 0.598
-0.108153 0.09241807 0.598
-0.09725451 0.09241807 0.598
-0.0910268 0.09241807 0.598
-0.08946987 0.09241807 0.598
-0.1112669 0.09397499 0.598
-0.1019253 0.09397499 0.598
-0.1128238 0.09553193 0.598
-0.1034822 0.09553193 0.598
-0.1019253 0.09553193 0.598
-0.06922982 0.09553193 0.598
-0.1143807 0.09708885 0.598
-0.1034822 0.09708885 0.598
-0.1019253 0.09708885 0.598
-0.07701445 0.09708885 0.598
-0.06144518 0.09708885 0.598
-0.1159376 0.09864578 0.598
-0.1019253 0.09864578 0.598
-0.05366054 0.09864578 0.598
-0.07078674 0.1002027 0.598
-0.04743283 0.1002027 0.598
-0.1174946 0.1017596 0.598
-0.06611596 0.1017596 0.598
-0.06455904 0.1017596 0.598
-0.04120512 0.1017596 0.598
-0.1174946 0.1033166 0.598
-0.1019253 0.1033166 0.598
-0.05833133 0.1033166 0.598
-0.1143807 0.1079873 0.598
-0.09725451 0.1079873 0.598
-0.01940814 0.1095443 0.598
-0.01473736 0.1111012 0.598
-0.08946987 0.1142151 0.598
-0.05054669 0.115772 0.598
-0.1097099 0.1188858 0.598
-0.07078674 0.1219997 0.598
-0.04898976 0.1219997 0.598
-0.06767289 0.1235566 0.598
-0.04898976 0.1235566 0.598
0.005502699 0.1235566 0.598
-0.05054669 0.1251135 0.598
0.03508432 0.1266705 0.598
0.04286896 0.1266705 0.598
0.04442588 0.1266705 0.598
-0.1083339 0.09101308 0.599
-0.1067743 0.09101308 0.599
-0.1052148 0.09101308 0.599
-0.1036553 0.09101308 0.599
-0.1020957 0.09101308 0.599
-0.09741714 0.09101308 0.599
-0.09585761 0.09101308 0.599
-0.09429808 0.09101308 0.599
-0.09273855 0.09101308 0.599
-0.09117901 0.09101308 0.599
-0.1114529 0.09257261 0.599
-0.1098934 0.09257261 0.599
-0.08805996 0.09257261 0.599
-0.1130124 0.09413214 0.599
-0.09897667 0.09413214 0.599
-0.09741714 0.09413214 0.599
-0.09585761 0.09413214 0.599
-0.09429808 0.09413214 0.599
-0.09273855 0.09413214 0.599
-0.07246464 0.09413214 0.599
-0.114572 0.09569167 0.599
-0.1005362 0.09569167 0.599
-0.09897667 0.09569167 0.599
-0.09741714 0.09569167 0.599
-0.08182184 0.09569167 0.599
-0.0802623 0.09569167 0.599
-0.07870277 0.09569167 0.599
-0.06778605 0.09569167 0.599
-0.1161315 0.09725121 0.599
-0.1005362 0.09725121 0.599
-0.0802623 0.09725121 0.599
-0.07870277 0.09725121 0.599
-0.0599884 0.09725121 0.599
-0.05842887 0.09725121 0.599
-0.05686934 0.09725121 0.599
-0.117691 0.09881074 0.599
-0.1005362 0.09881074 0.599
-0.07714324 0.09881074 0.599
-0.0755837 0.09881074 0.599
-0.05219075 0.09881074 0.599
-0.117691 0.1003703 0.599
-0.1020957 0.1003703 0.599
-0.07402418 0.1003703 0.599
-0.07246464 0.1003703 0.599
-0.1192506 0.1019298 0.599
-0.1020957 0.1019298 0.599
-0.06934559 0.1019298 0.599
-0.06778605 0.1019298 0.599
-0.1005362 0.1034893 0.599
-0.06310746 0.1034893 0.599
-0.06154793 0.1034893 0.599
-0.0599884 0.1034893 0.599
-0.0350359 0.1034893 0.599
-0.117691 0.1050489 0.599
-0.1005362 0.1050489 0.599
-0.05842887 0.1050489 0.599
-0.05686934 0.1050489 0.599
-0.03035731 0.1050489 0.599
-0.1161315 0.1066084 0.599
-0.09897667 0.1066084 0.599
-0.05530981 0.1066084 0.599
-0.02567872 0.1066084 0.599
-0.1161315 0.1081679 0.599
-0.05375027 0.1081679 0.599
-0.02255966 0.1081679 0.599
-0.114572 0.1097275 0.599
-0.05219075 0.111287 0.599
-0.1130124 0.1128465 0.599
-0.09117901 0.1128465 0.599
-0.05219075 0.1128465 0.599
-0.01008341 0.1128465 0.599
-0.006964347 0.114406 0.599
-0.1114529 0.1159656 0.599
-0.08650043 0.1159656 0.599
-0.1114529 0.1175251 0.599
-0.08338136 0.1175251 0.599
-0.05063121 0.1175251 0.599
-0.07870277 0.1190846 0.599
-0.05063121 0.1190846 0.599
-0.1098934 0.1206442 0.599
-0.07402418 0.1206442 0.599
-0.05063121 0.1206442 0.599
0.00395237 0.1222037 0.599
0.008630962 0.1253228 0.599
-0.1100768 0.09116502 0.6
-0.0897691 0.09116502 0.6
-0.1132011 0.09272716 0.6
-0.08664483 0.09272716 0.6
-0.1147633 0.09428929 0.6
-0.09133123 0.09428929 0.6
-0.0897691 0.09428929 0.6
-0.08820697 0.09428929 0.6
-0.08664483 0.09428929 0.6
-0.08039629 0.09428929 0.6
-0.07883416 0.09428929 0.6
-0.07727202 0.09428929 0.6
-0.07570989 0.09428929 0.6
-0.07414775 0.09428929 0.6
-0.07102349 0.09428929 0.6
-0.06946135 0.09428929 0.6
-0.1178875 0.09585143 0.6
-0.1163254 0.09585143 0.6
-0.09601764 0.09585143 0.6
-0.0944555 0.09585143 0.6
-0.09289337 0.09585143 0.6
-0.08508269 0.09585143 0.6
-0.08352056 0.09585143 0.6
-0.06633709 0.09585143 0.6
-0.06477495 0.09585143 0.6
-0.1194497 0.09741356 0.6
-0.1178875 0.09741356 0.6
-0.0991419 0.09741356 0.6
-0.09757977 0.09741356 0.6
-0.08195843 0.09741356 0.6
-0.05540214 0.09741356 0.6
-0.1194497 0.0989757 0.6
-0.0991419 0.0989757 0.6
-0.07883416 0.0989757 0.6
-0.05071574 0.0989757 0.6
-0.1194497 0.1005378 0.6
-0.100704 0.1005378 0.6
-0.0991419 0.1005378 0.6
-0.07570989 0.1005378 0.6
-0.04602933 0.1005378 0.6
-0.100704 0.1021 0.6
-0.07258562 0.1021 0.6
-0.07102349 0.1021 0.6
-0.0397808 0.1021 0.6
-0.1194497 0.1036621 0.6
-0.06633709 0.1036621 0.6
-0.06477495 0.1036621 0.6
-0.1194497 0.1052242 0.6
-0.0991419 0.1052242 0.6
-0.06165068 0.1052242 0.6
-0.06008854 0.1052242 0.6
-0.1178875 0.1067864 0.6
-0.09757977 0.1067864 0.6
-0.05696427 0.1067864 0.6
-0.09601764 0.1083485 0.6
-0.05540214 0.1083485 0.6
-0.0944555 0.1099106 0.6
-0.05384001 0.1099106 0.6
-0.01791091 0.1099106 0.6
-0.1147633 0.1114728 0.6
-0.09289337 0.1114728 0.6
-0.05384001 0.1114728 0.6
-0.01322451 0.1114728 0.6
-0.1132011 0.114597 0.6
-0.05227787 0.114597 0.6
-0.05227787 0.1161592 0.6
-0.05227787 0.1177213 0.6
-0.111639 0.1192834 0.6
-0.07727202 0.1192834 0.6
-0.07258562 0.1208456 0.6
0.002396833 0.1208456 0.6
-0.06946135 0.1224077 0.6
-0.05071574 0.1224077 0.6
-0.111825 0.09131696 0.601
-0.08835398 0.09131696 0.601
-0.1149545 0.0928817 0.601
-0.08522449 0.0928817 0.601
-0.08365976 0.0928817 0.601
-0.1165193 0.09444644 0.601
-0.08522449 0.09444644 0.601
-0.08365976 0.09444644 0.601
-0.08209503 0.09444644 0.601
-0.06801238 0.09444644 0.601
-0.1196487 0.09601118 0.601
-0.09148345 0.09601118 0.601
-0.08991871 0.09601118 0.601
-0.08835398 0.09601118 0.601
-0.08678924 0.09601118 0.601
-0.06331816 0.09601118 0.601
-0.09617766 0.09757592 0.601
-0.09461293 0.09757592 0.601
-0.08522449 0.09757592 0.601
-0.08365976 0.09757592 0.601
-0.05392974 0.09757592 0.601
-0.1212135 0.09914066 0.601
-0.0977424 0.09914066 0.601
-0.09617766 0.09914066 0.601
-0.08053029 0.09914066 0.601
-0.04923553 0.09914066 0.601
-0.1212135 0.1007054 0.601
-0.0977424 0.1007054 0.601
-0.07896554 0.1007054 0.601
-0.0774008 0.1007054 0.601
-0.04454131 0.1007054 0.601
-0.1212135 0.1022701 0.601
-0.09930714 0.1022701 0.601
-0.07583607 0.1022701 0.601
-0.07427133 0.1022701 0.601
-0.03828236 0.1022701 0.601
-0.1212135 0.1038349 0.601
-0.09930714 0.1038349 0.601
-0.07114185 0.1038349 0.601
-0.06957712 0.1038349 0.601
-0.06801238 0.1038349 0.601
-0.03358814 0.1038349 0.601
-0.0648829 0.1053996 0.601
-0.06331816 0.1053996 0.601
-0.02889393 0.1053996 0.601
-0.1196487 0.1069643 0.601
-0.05862395 0.1069643 0.601
-0.02419972 0.1069643 0.601
-0.118084 0.1085291 0.601
-0.05705921 0.1085291 0.601
-0.02107024 0.1085291 0.601
-0.1165193 0.1100938 0.601
-0.05549448 0.1100938 0.601
-0.1149545 0.1132233 0.601
-0.05392974 0.1132233 0.601
-0.008552338 0.1132233 0.601
-0.08835398 0.114788 0.601
-0.05392974 0.114788 0.601
-0.1133898 0.1163528 0.601
-0.05392974 0.1163528 0.601
-0.08209503 0.1179175 0.601
-0.05392974 0.1179175 0.601
-0.07583607 0.1194822 0.601
-0.052365 0.1194822 0.601
0.00083609 0.1194822 0.601
-0.111825 0.121047 0.601
-0.07114185 0.121047 0.601
-0.052365 0.121047 0.601
-0.1135785 0.09146892 0.6020001
-0.1167131 0.09303626 0.6020001
-0.1182805 0.09460359 0.6020001
-0.1214152 0.09773828 0.6020001
-0.09320302 0.09773828 0.6020001
-0.088501 0.09773828 0.6020001
-0.08693365 0.09773828 0.6020001
-0.08223163 0.09930562 0.6020001
-0.09790504 0.1024403 0.6020001
-0.07282758 0.1040076 0.6020001
-0.1214152 0.105575 0.6020001
-0.06655821 0.105575 0.6020001
-0.06185618 0.1071423 0.6020001
-0.06028884 0.1071423 0.6020001
-0.01640328 0.110277 0.6020001
-0.1167131 0.1118444 0.6020001
-0.05558682 0.1118444 0.6020001
-0.01170125 0.1118444 0.6020001
-0.09006833 0.1134117 0.6020001
-0.1151458 0.114979 0.6020001
-0.08536631 0.1165464 0.6020001
-0.1135785 0.1181137 0.6020001
-0.0007298604 0.1181137 0.6020001
-0.05401948 0.1196811 0.6020001
-0.05401948 0.1212484 0.6020001
-0.1090573 0.09005091 0.603
-0.1074873 0.09005091 0.603
-0.1059174 0.09005091 0.603
-0.1043475 0.09005091 0.603
-0.1027775 0.09005091 0.603
-0.1012076 0.09005091 0.603
-0.09963762 0.09005091 0.603
-0.09806767 0.09005091 0.603
-0.09649772 0.09005091 0.603
-0.1153371 0.09162086 0.603
-0.118477 0.0931908 0.603
-0.08236822 0.0931908 0.603
-0.08079828 0.0931908 0.603
-0.07922833 0.0931908 0.603
-0.1200469 0.09476074 0.603
-0.06666877 0.09476074 0.603
-0.1216169 0.09633069 0.603
-0.06195894 0.09633069 0.603
-0.06038899 0.09633069 0.603
-0.1231868 0.09790064 0.603
-0.09178789 0.09790064 0.603
-0.09021795 0.09790064 0.603
-0.05253927 0.09790064 0.603
-0.1231868 0.09947058 0.603
-0.09492779 0.09947058 0.603
-0.09335784 0.09947058 0.603
-0.08550811 0.09947058 0.603
-0.08393817 0.09947058 0.603
-0.04782943 0.09947058 0.603
-0.1231868 0.1010405 0.603
-0.09649772 0.1010405 0.603
-0.08079828 0.1010405 0.603
-0.04311959 0.1010405 0.603
-0.1231868 0.1026105 0.603
-0.07765839 0.1026105 0.603
-0.1231868 0.1041804 0.603
-0.09806767 0.1041804 0.603
-0.07451849 0.1041804 0.603
-0.03212998 0.1041804 0.603
-0.09806767 0.1057504 0.603
-0.06980866 0.1057504 0.603
-0.06823871 0.1057504 0.603
-0.02742014 0.1057504 0.603
-0.1216169 0.1073203 0.603
-0.09649772 0.1073203 0.603
-0.06509882 0.1073203 0.603
-0.06352888 0.1073203 0.603
-0.1200469 0.1088902 0.603
-0.09492779 0.1088902 0.603
-0.05881904 0.1088902 0.603
-0.01957041 0.1088902 0.603
-0.118477 0.1104602 0.603
-0.09335784 0.1104602 0.603
-0.0572491 0.1104602 0.603
-0.09178789 0.1120301 0.603
-0.116907 0.1136001 0.603
-0.05567915 0.1136001 0.603
-0.05567915 0.11517 0.603
-0.1153371 0.11674 0.603
-0.05567915 0.11674 0.603
-0.08079828 0.1183099 0.603
-0.05567915 0.1183099 0.603
-0.07451849 0.1198799 0.603
-0.05567915 0.1198799 0.603
-0.1139558 0.09020025 0.604
-0.1123832 0.09020025 0.604
-0.1108107 0.09020025 0.604
-0.1171009 0.09177279 0.604
-0.08722246 0.09177279 0.604
-0.120246 0.09334534 0.604
-0.07778717 0.09334534 0.604
-0.1218185 0.09491789 0.604
-0.1233911 0.09649044 0.604
-0.05891659 0.09649044 0.604
-0.05105384 0.09806298 0.604
-0.0919401 0.09963553 0.604
-0.09036756 0.09963553 0.604
-0.08879501 0.09963553 0.604
-0.08722246 0.09963553 0.604
-0.0463362 0.09963553 0.604
-0.09508521 0.1012081 0.604
-0.08407737 0.1012081 0.604
-0.08250482 0.1012081 0.604
-0.04161855 0.1012081 0.604
-0.09665775 0.1027806 0.604
-0.08093227 0.1027806 0.604
-0.07935972 0.1027806 0.604
-0.0369009 0.1027806 0.604
-0.09665775 0.1043532 0.604
-0.07778717 0.1043532 0.604
-0.07621462 0.1043532 0.604
-0.1233911 0.1059257 0.604
-0.09665775 0.1059257 0.604
-0.07306953 0.1059257 0.604
-0.07149698 0.1059257 0.604
-0.06835188 0.1074983 0.604
-0.06677933 0.1074983 0.604
-0.02274797 0.1074983 0.604
-0.06363423 0.1090708 0.604
-0.06206169 0.1090708 0.604
-0.06048913 0.1090708 0.604
-0.05891659 0.1106434 0.604
-0.01488522 0.1106434 0.604
-0.1186734 0.1122159 0.604
-0.05734404 0.1122159 0.604
-0.05734404 0.1137885 0.604
-0.1171009 0.115361 0.604
-0.08722246 0.115361 0.604
-0.05734404 0.115361 0.604
-0.08407737 0.1169336 0.604
-0.05734404 0.1169336 0.604
-0.07935972 0.1185061 0.604
-0.05734404 0.1185061 0.604
-0.1174886 0.09049892 0.606
-0.1159109 0.09049892 0.606
-0.1188699 0.09192473 0.605
-0.1222219 0.09207667 0.606
-0.1206441 0.09207667 0.606
-0.08593352 0.09207667 0.606
-0.1237997 0.09365443 0.606
-0.1220202 0.09349988 0.605
-0.0763408 0.09349988 0.605
-0.1253774 0.09523218 0.606
-0.1235954 0.09507503 0.605
-0.06531474 0.09507503 0.605
-0.06384493 0.09523218 0.606
-0.1269552 0.09680994 0.606
-0.1253774 0.09680994 0.606
-0.05743898 0.09665018 0.605
-0.05595616 0.09680994 0.606
-0.1269552 0.0983877 0.606
-0.1251705 0.09822534 0.605
-0.04964514 0.0983877 0.606
-0.1251705 0.0998005 0.605
-0.04491187 0.09996545 0.606
-0.1251705 0.1013756 0.605
-0.09366748 0.1013756 0.605
-0.09224454 0.1015432 0.606
-0.09066679 0.1015432 0.606
-0.08908904 0.1015432 0.606
-0.08751128 0.1015432 0.606
-0.08579171 0.1013756 0.605
-0.0401786 0.1015432 0.606
-0.1253774 0.103121 0.606
-0.09540006 0.103121 0.606
-0.08277801 0.103121 0.606
-0.03544534 0.103121 0.606
-0.1253774 0.1046987 0.606
-0.09540006 0.1046987 0.606
-0.0796225 0.1046987 0.606
-0.03066139 0.1045259 0.605
-0.07646699 0.1062765 0.606
-0.07476565 0.1061011 0.605
-0.02593593 0.1061011 0.605
-0.1237997 0.1078542 0.606
-0.09524263 0.1076763 0.605
-0.07331148 0.1078542 0.606
-0.07173372 0.1078542 0.606
-0.0700402 0.1076763 0.605
-0.02124553 0.1078542 0.606
-0.1220202 0.1092514 0.605
-0.0938223 0.109432 0.606
-0.06857821 0.109432 0.606
-0.06700046 0.109432 0.606
-0.06531474 0.1092514 0.605
-0.01809002 0.109432 0.606
-0.1204451 0.1108266 0.605
-0.06058928 0.1108266 0.605
-0.1222219 0.1110097 0.606
-0.06384493 0.1110097 0.606
-0.06226718 0.1110097 0.606
-0.01335676 0.1110097 0.606
-0.1206441 0.1125875 0.606
-0.09066679 0.1125875 0.606
-0.06068943 0.1125875 0.606
-0.05901413 0.1124017 0.605
-0.01018441 0.1124017 0.605
-0.08894203 0.1139769 0.605
-0.007034106 0.1139769 0.605
-0.1190664 0.1141653 0.606
-0.05911167 0.1141653 0.606
-0.05911167 0.115743 0.606
-0.003890221 0.115743 0.606
-0.08277801 0.1173208 0.606
-0.05911167 0.1173208 0.606
0.0008430458 0.1188985 0.606
-0.1129414 0.0890679 0.6070001
-0.1113611 0.0890679 0.6070001
-0.1097807 0.0890679 0.6070001
-0.1224236 0.09064826 0.6070001
-0.1208432 0.09064826 0.6070001
-0.1192629 0.09064826 0.6070001
-0.124004 0.09222862 0.6070001
-0.1271647 0.09380898 0.6070001
-0.1255843 0.09380898 0.6070001
-0.07501281 0.09380898 0.6070001
-0.1271647 0.09538934 0.6070001
-0.06236994 0.09538934 0.6070001
-0.05446814 0.09696969 0.6070001
-0.1271647 0.1001304 0.6070001
-0.1271647 0.1017108 0.6070001
-0.09397713 0.1032911 0.6070001
-0.08607533 0.1032911 0.6070001
-0.08449497 0.1032911 0.6070001
-0.03392347 0.1032911 0.6070001
-0.08133426 0.1048715 0.6070001
-0.02918239 0.1048715 0.6070001
-0.1255843 0.1064519 0.6070001
-0.09555749 0.1064519 0.6070001
-0.07817353 0.1064519 0.6070001
-0.02444131 0.1064519 0.6070001
-0.07501281 0.1080322 0.6070001
-0.124004 0.1096126 0.6070001
-0.0718521 0.1096126 0.6070001
-0.07027174 0.1096126 0.6070001
-0.09239677 0.1111929 0.6070001
-0.06869138 0.1111929 0.6070001
-0.06711102 0.1111929 0.6070001
-0.06553066 0.1111929 0.6070001
-0.0639503 0.1127733 0.6070001
-0.06236994 0.1127733 0.6070001
-0.1208432 0.1143537 0.6070001
-0.06236994 0.1143537 0.6070001
-0.06078958 0.1143537 0.6070001
-0.08607533 0.115934 0.6070001
-0.06236994 0.115934 0.6070001
-0.06078958 0.115934 0.6070001
-0.1178764 0.08921463 0.608
-0.1162934 0.08921463 0.608
-0.1147105 0.08921463 0.608
-0.1083786 0.08921463 0.608
-0.1242082 0.0907976 0.608
-0.1257912 0.09238056 0.608
-0.1289571 0.09554648 0.608
-0.1289571 0.09712945 0.608
-0.04822602 0.09871241 0.608
-0.03872825 0.1018783 0.608
-0.1273742 0.1034613 0.608
-0.09254898 0.1034613 0.608
-0.09096602 0.1034613 0.608
-0.08938307 0.1034613 0.608
-0.0878001 0.1034613 0.608
-0.1273742 0.1050443 0.608
-0.09413195 0.1050443 0.608
-0.08305121 0.1050443 0.608
-0.07988528 0.1066272 0.608
-0.09413195 0.1082102 0.608
-0.07671935 0.1082102 0.608
-0.07355343 0.1097931 0.608
-0.01656676 0.1097931 0.608
-0.1226253 0.1129591 0.608
-0.06563862 0.1129591 0.608
-0.008651949 0.1129591 0.608
-0.06405565 0.114542 0.608
-0.1244125 0.08936136 0.609
-0.122827 0.08936136 0.609
-0.1212414 0.08936136 0.609
-0.1196558 0.08936136 0.609
-0.1069713 0.08936136 0.609
-0.1259981 0.09094694 0.609
-0.1291692 0.0925325 0.609
-0.1275837 0.0925325 0.609
-0.1291692 0.09411807 0.609
-0.06098987 0.09570363 0.609
-0.05306204 0.0972892 0.609
-0.1291692 0.09887476 0.609
-0.1291692 0.1004603 0.609
-0.04354864 0.1004603 0.609
-0.03244968 0.1036315 0.609
-0.08635893 0.105217 0.609
-0.08477337 0.105217 0.609
-0.1275837 0.1068026 0.609
-0.09428677 0.1068026 0.609
-0.08160224 0.1068026 0.609
-0.1259981 0.1083882 0.609
-0.0784311 0.1083882 0.609
-0.01976514 0.1083882 0.609
-0.1259981 0.1099737 0.609
-0.0927012 0.1099737 0.609
-0.07525997 0.1099737 0.609
-0.1244125 0.1115593 0.609
-0.09111563 0.1115593 0.609
-0.07208884 0.1115593 0.609
-0.07050327 0.1115593 0.609
-0.01183731 0.1115593 0.609
-0.08953007 0.1131449 0.609
-0.06891771 0.1131449 0.609
-0.06733214 0.1131449 0.609
-0.06891771 0.1147304 0.609
-0.06733214 0.1147304 0.609
-0.06574658 0.1147304 0.609
-0.005495047 0.1147304 0.609
-0.002323914 0.116316 0.609
-0.1246168 0.08791994 0.61
-0.1230287 0.08791994 0.61
-0.1216396 0.08806406 0.611
-0.1200488 0.08806406 0.611
-0.1277932 0.08950809 0.61
-0.126205 0.08950809 0.61
-0.1055588 0.08950809 0.61
-0.1293813 0.09109627 0.61
-0.1277932 0.09109627 0.61
-0.1309695 0.09268444 0.61
-0.1309695 0.09427261 0.61
-0.1309695 0.09586077 0.61
-0.05950185 0.09586077 0.61
-0.1309695 0.09744895 0.61
-0.05164552 0.0976087 0.611
-0.1309695 0.09903712 0.61
-0.04679649 0.09903712 0.61
-0.04203198 0.1006253 0.61
-0.1293813 0.1022135 0.61
-0.03726747 0.1022135 0.61
-0.1293813 0.1038016 0.61
-0.09285342 0.1053898 0.61
-0.09126525 0.1053898 0.61
-0.08967708 0.1053898 0.61
-0.08808891 0.1053898 0.61
-0.02773845 0.1053898 0.61
-0.0833244 0.106978 0.61
-0.02297394 0.106978 0.61
-0.09300563 0.1071533 0.611
-0.08505177 0.1071533 0.611
-0.1280027 0.1087441 0.611
-0.09285342 0.1085661 0.61
-0.08187022 0.1087441 0.611
-0.08014806 0.1085661 0.61
-0.01823928 0.1087441 0.611
-0.07868867 0.1103349 0.611
-0.07697172 0.1101543 0.61
-0.01503309 0.1101543 0.61
-0.126205 0.1117425 0.61
-0.07550713 0.1119257 0.611
-0.07379538 0.1117425 0.61
-0.0722072 0.1133306 0.61
-0.07061904 0.1133306 0.61
-0.1282122 0.0882082 0.612
-0.1266188 0.0882082 0.612
-0.1186519 0.0882082 0.612
-0.1170585 0.0882082 0.612
-0.1154651 0.0882082 0.612
-0.1298055 0.08980157 0.612
-0.1313989 0.09139495 0.612
-0.1329923 0.09458171 0.612
-0.1329923 0.09617507 0.612
-0.05810356 0.09617507 0.612
-0.1329923 0.09776846 0.612
-0.1313989 0.1009552 0.612
-0.03579628 0.1025486 0.612
-0.03101615 0.104142 0.612
-0.1298055 0.1057353 0.612
-0.02623602 0.1057353 0.612
-0.1298055 0.1073287 0.612
-0.09156448 0.1073287 0.612
-0.08997111 0.1073287 0.612
-0.08837773 0.1073287 0.612
-0.08678436 0.1073287 0.612
-0.09156448 0.1089221 0.612
-0.0835976 0.1089221 0.612
-0.1282122 0.1105155 0.612
-0.09156448 0.1105155 0.612
-0.08041085 0.1105155 0.612
-0.013489 0.1105155 0.612
-0.07722408 0.1121088 0.612
-0.01030225 0.1121088 0.612
-0.1252297 0.08675635 0.613
-0.1236337 0.08675635 0.613
-0.1140578 0.08835233 0.613
-0.1124618 0.08835233 0.613
-0.1316136 0.0899483 0.613
-0.1332096 0.09154429 0.613
-0.1332096 0.09314027 0.613
-0.0502186 0.09792821 0.613
-0.1332096 0.09952419 0.613
-0.04064271 0.1011202 0.613
-0.1316136 0.1027161 0.613
-0.1316136 0.1043121 0.613
-0.02149094 0.1075041 0.613
-0.1300176 0.1091001 0.613
-0.09011812 0.1091001 0.613
-0.08852214 0.1091001 0.613
-0.08692615 0.1091001 0.613
-0.08533017 0.1091001 0.613
-0.016703 0.1091001 0.613
-0.09011812 0.1106961 0.613
-0.08213822 0.1106961 0.613
-0.1302297 0.08849646 0.614
-0.1110467 0.08849646 0.614
-0.1350255 0.0948908 0.614
-0.05509627 0.09648937 0.614
-0.1334269 0.1012851 0.614
-0.03431468 0.1028837 0.614
-0.02951893 0.1044823 0.614
-0.02472317 0.1060809 0.614
-0.1272395 0.0870394 0.615
-0.1224359 0.0870394 0.615
-0.1208347 0.0870394 0.615
-0.1192335 0.0870394 0.615
-0.1336442 0.09024177 0.615
-0.1352454 0.09344415 0.615
-0.1352454 0.09664652 0.615
-0.1352454 0.09824771 0.615
-0.04878125 0.09824771 0.615
-0.04397769 0.0998489 0.615
-0.132043 0.1062536 0.615
-0.132043 0.1078548 0.615
-0.01995987 0.1078548 0.615
-0.1290502 0.08718093 0.6160001
-0.1322577 0.08878472 0.6160001
-0.1354653 0.1000113 0.6160001
-0.1338615 0.1048226 0.6160001
-0.02319991 0.1064264 0.6160001
-0.01518096 0.109634 0.6160001
-0.1180149 0.08732246 0.617
-0.1356852 0.09214164 0.617
-0.06018466 0.09535443 0.617
-0.04251432 0.1001736 0.617
-0.03769513 0.10178 0.617
-0.03287594 0.1033864 0.617
-0.02805676 0.1049928 0.617
-0.01841839 0.1082056 0.617
-0.1310781 0.08746398 0.618
-0.1165972 0.08746398 0.618
-0.1342961 0.08907299 0.618
-0.1359051 0.09068198 0.618
-0.1375141 0.09389997 0.618
-0.1375141 0.09550898 0.618
-0.0586732 0.09550898 0.618
-0.1375141 0.09711797 0.618
-0.1375141 0.09872697 0.618
-0.04741021 0.09872697 0.618
-0.1359051 0.103554 0.618
-0.02649323 0.105163 0.618
-0.1264554 0.08599391 0.619
-0.1282739 0.08613282 0.62
-0.1250455 0.08613282 0.62
-0.1234313 0.08613282 0.62
-0.1218171 0.08613282 0.62
-0.1331165 0.08774704 0.62
-0.1151742 0.08760551 0.619
-0.1379592 0.09258965 0.62
