# .PCD v0.7 - Point Cloud Data file format
VERSION 0.7
FIELDS x y z
SIZE 4 4 4
TYPE F F F
COUNT 1 1 1
WIDTH 746
HEIGHT 1
VIEWPOINT 0 0 0 1 0 0 0
POINTS 746
DATA ascii
0.056040320307257974 0.000967855926179928 -0.036699014814916886
0.05651096183783616 0.002015122178480322 -0.03751933984591843
0.0569816033684144 0.003062388430780716 -0.03833966487691998
0.05716957210033491 0.006204261403984501 -0.04150293213854295
0.057640213630913095 0.007251527656284895 -0.04232325716954455
0.05811088851430335 0.008298868124888337 -0.04314364033427376
0.05105216421662839 -0.008627442306576638 -0.028017593093425885
0.05227841209601594 -0.008627442306576194 -0.02731406320342722
0.05350465980192676 -0.00862744230657575 -0.02661053341295655
0.054730907421099234 -0.008627442306575306 -0.025907003672249906
0.05595715486679498 -0.008627442306574806 -0.025203474031071316
0.05718340274618253 -0.008627442306574362 -0.02449994414107265
0.05029742504093193 -0.007578246430397451 -0.029542959491345278
0.05152367292031945 -0.0075782464303970065 -0.028839429601346556
0.04954272008543101 -0.006528976337915271 -0.031068383525352128
0.050768967097435 -0.006528976337914771 -0.03036485413299367
0.05001422878912201 -0.005479780461735639 -0.0318902200332728
0.06595545122115995 -0.0054797804617297 -0.022744331463289746
0.050485737492813015 -0.004430584585556063 -0.032712056541193524
0.0676532060694714 -0.0044305845855496795 -0.02286263907649222
0.05218352656132008 -0.0033813144930728845 -0.0328304217904834
0.05265503526501114 -0.002332118616893253 -0.033652258298404125
0.053126543968702145 -0.0012829227407136212 -0.034474094806324795
0.053598086025205216 -0.000233652648230942 -0.035295989447973186
0.05406959472889622 0.0008155432279486341 -0.036117825955893856
0.055484154192781354 0.0039632050727905765 -0.03858339361338359
0.05595566289647236 0.005012400948970153 -0.03940523012130431
0.05642717160016342 0.00606159682514984 -0.04022706662922504
0.09170515344198937 0.008160062793824807 -0.022171966332872828
0.04831347519966964 -0.0077497883454816785 -0.02894918220406617
0.04954198174581856 -0.007749788345481179 -0.028244356458959452
0.058141523231943326 -0.007749788345478015 -0.023310578731413567
0.04878585107647351 -0.006698662845422865 -0.02977253018890602
0.06107091046627797 -0.006698662845418313 -0.022724276221320394
0.048029754627324006 -0.005647463129061392 -0.03130076155493999
0.06400033105342462 -0.005647463129055452 -0.022138031844954942
0.04850213050412783 -0.004596337629002523 -0.032124109539779844
0.048974539733743716 -0.0035451379126406612 -0.03294751565834736
0.05067542128931299 -0.002494012412581348 -0.033066038395720754
0.05114779716611681 -0.0014428869125224786 -0.03388938638056055
0.07373331121566021 -0.00039168719615234604 -0.022025936551810454
0.05426587392510521 0.0027617635203194824 -0.03647806884226851
0.08006449491394532 0.0027617635203290303 -0.021676737650191624
0.05473824980190903 0.0038128890203783516 -0.03730141682710836
0.08639567861223044 0.005915214236810518 -0.02132753874857285
0.08809656450471737 0.0069663397368697755 -0.0214460589977451
0.08979744172336884 0.008017465236929033 -0.021564584223319527
0.04878480323709597 -0.007925189508323383 -0.026942730970375584
0.05001556671523921 -0.007925189508322938 -0.026236610365441282
0.05124633106076598 -0.007925189508322494 -0.025530489262866773
0.05247709540629275 -0.00792518950832205 -0.024824368160292265
0.05370785957834284 -0.007925189508321606 -0.02411824715724581
0.04556575411781588 -0.006872134384386663 -0.029885953242217878
0.0467965175959591 -0.006872134384386219 -0.02917983263728363
0.04603903052054459 -0.005819005044145564 -0.030710870837704518
0.047269793998687804 -0.00581900504414512 -0.030004750232770272
0.04651227357046128 -0.004765949920207457 -0.031535730299463494
0.04698554997318999 -0.0037128205799663583 -0.032360647894950134
0.04916279955116648 -0.0016067103320897558 -0.03330424621353384
0.0717898307038431 -0.0005535809918404411 -0.02141898595324021
0.05134008334933868 0.0004994741320898943 -0.03424790216820495
0.05181332639925537 0.0015525292560279458 -0.03507276162996398
0.07813264538421097 0.0026056585962787038 -0.021069141047788065
0.08447546873841433 0.005764898184397793 -0.020719291165933795
0.05465288475719146 0.007871082648565564 -0.04002209280170088
0.04925891252705242 -0.008104449918923617 -0.024930666067911056
0.044800933303079854 -0.007049465171108105 -0.028586703344398612
0.04603395544798447 -0.007049465171107661 -0.027879286884356314
0.04726697846027267 -0.0070494651711072165 -0.02717186992667381
0.054665112197083976 -0.007049465171104441 -0.022927370668779756
0.04280899403199881 -0.005994480423291759 -0.03082791018900266
0.04404202311597183 -0.00599448042329126 -0.030120489747838652
0.058838289722210946 -0.0059944804232858195 -0.021631491729690755
0.04451616669181335 -0.004939421459170923 -0.030946918820244418
0.061778478455245256 -0.004939421459164539 -0.021043087384371717
0.04499027691484281 -0.0038844367113535783 -0.031773289758922574
0.04546442049068433 -0.0028293777472332415 -0.03259971883132834
0.04717155112385138 -0.0017743929994155083 -0.03271867430524461
0.06984006342469842 -0.0007194082515900035 -0.020811546972600403
0.04935282706762703 0.00033565071252261713 -0.033664057856286234
0.07619455111379653 0.002445694424469902 -0.020461109220640483
0.05200821410181572 0.0035006791722780317 -0.03543581184836575
0.05248235767765724 0.004555738136398424 -0.03626224092077157
0.052956467900686754 0.005610722884215713 -0.03708861185944973
0.0825490054500827 0.005610722884226704 -0.020110613334952898
0.05343061147652828 0.006665781848336105 -0.03791504093185549
0.053904721699557734 0.0077207665961533944 -0.03874141187053359
0.04156377611623527 -0.007230588183649578 -0.028701792739602272
0.0427990603974355 -0.007230588183649134 -0.02799307843389115
0.04403434120910152 -0.007230588183648634 -0.0272843661187408
0.04526962115338401 -0.00723058818364819 -0.02657565430123071
0.04650490196505003 -0.007230588183647746 -0.025866941986080416
0.04774018277671607 -0.007230588183647302 -0.025158229670930066
0.05021074440004811 -0.007230588183646358 -0.023740805040629476
0.05144602538519086 -0.007230588183645914 -0.023032092625951073
0.0420387535123776 -0.006173673811953051 -0.029529675155199497
0.04327403779357783 -0.006173673811952607 -0.028820960849488375
0.05562684504285456 -0.0061736738119479995 -0.02173383819562541
0.042988741657474266 -0.004059770852256894 -0.031185498120121724
0.04346375240642861 -0.00300278226425732 -0.03201343866944667
0.043938729802570936 -0.001945867892560793 -0.03284132108504395
0.06617378614732655 -0.001945867892552522 -0.020084498417057894
0.04564902483272551 -0.0008888793045607746 -0.032960547328657774
0.0678840811774811 -0.0008888793045525034 -0.020203724660671663
0.0473592830405338 0.00016803506713625183 -0.03307971742910465
0.04783426043667613 0.0012249494388328341 -0.03390759984470193
0.04954455112991296 0.0022819380268328526 -0.03402682857651679
0.07425016649584995 0.002281938026842012 -0.019852582771150706
0.05001952852605529 0.0033388523985293794 -0.03485471099211407
0.05049453927500963 0.004395840986528954 -0.035682651541439014
0.08061625181421889 0.005452755358236527 -0.019501440881629806
0.03955343511206949 -0.007415778704130793 -0.028109102059573066
0.04079097459049691 -0.007415778704130349 -0.02739909388931472
0.042028514068924355 -0.007415778704129905 -0.026689085719056427
0.043266055282118854 -0.007415778704129405 -0.025979076553517666
0.044503593893162746 -0.007415778704128961 -0.025269068880899526
0.045741133371590165 -0.007415778704128517 -0.024559060710641234
0.04697867198263406 -0.007415778704128073 -0.023849053038023094
0.048216211461061476 -0.0074157787041275736 -0.023139044867764802
0.04002931303413665 -0.006356860492251981 -0.028938554085817136
0.05240470634385888 -0.006356860492247429 -0.02183847322922222
0.04050515760339174 -0.005298016496676217 -0.029767947978333542
0.05659316822079763 -0.005298016496670277 -0.020537843257895927
0.04098103552545895 -0.004239098284797405 -0.030597400004577613
0.059544124232336154 -0.004239098284790521 -0.019947279441263566
0.0414568800947141 -0.00318025428922164 -0.03142679389709402
0.04193275801678126 -0.002121336077342828 -0.03225624592333809
0.06420845995463945 -0.002121336077334557 -0.019476103835090353
0.04583540403421357 0.0010552701256884012 -0.03332446939409833
0.04802466773873032 0.0031730323331434773 -0.034273306147320104
0.05068980676316373 0.00634971275247731 -0.03605159641970651
0.05116565133241882 0.0074085567480530745 -0.03688099031222292
0.051641529254486035 0.008467474959931942 -0.03771044233846704
0.03753684578701896 -0.007604687234128105 -0.027515969914527205
0.038776640462673595 -0.007604687234127605 -0.026804667879721744
0.0400164351383282 -0.007604687234127161 -0.026093365844916228
0.04125622981398283 -0.007604687234126717 -0.02538206381011071
0.042496031428705866 -0.007604687234126273 -0.02467075779418354
0.04373582870651113 -0.007604687234125773 -0.02395945426645746
0.03677375417989681 -0.006543913614673547 -0.029058182295170376
0.03801355752938693 -0.0065439136146731025 -0.02834687528396279
0.049171729560100186 -0.006543913614668939 -0.021945145524988552
0.03725049927507679 -0.005483065778915497 -0.029889145798333572
0.0384903026245669 -0.005483065778915053 -0.029177838787125987
0.053367866488696014 -0.005483065778909502 -0.020642198444973336
0.03772721101744475 -0.004422292159460495 -0.030720051167769158
0.038967014366934866 -0.004422292159460051 -0.030008744156561573
0.03944375946211484 -0.0033614443237020564 -0.03083970765972477
0.03992050455729487 -0.002300596487943951 -0.03167067116288802
0.062236852088255634 -0.00230059648793568 -0.01886720965437866
0.04211375607049744 -0.00017897503273045512 -0.03262123800068134
0.04383026248852001 0.0008817985867249911 -0.032740841335311355
0.044306974230887974 0.0019425722061799933 -0.03357174670474694
0.04602351400172258 0.003003420041938487 -0.03369140817310462
0.0720592629073182 0.003003420041948146 -0.018754030607374572
0.048216772453993556 0.005125041497151983 -0.03464197102977623
0.07844865221650013 0.0061858893329210796 -0.018401649867512526
0.03099623737883478 -0.007994156253701978 -0.027756151202688317
0.03224055112277929 -0.007994156253701534 -0.027042256462386394
0.03348486486672381 -0.00799415625370109 -0.026328361722084415
0.03472917861066835 -0.00799415625370059 -0.02561446698178249
0.03597349235461286 -0.007994156253700146 -0.024900572241480567
0.03721780609855738 -0.007994156253699702 -0.024186677501178644
0.03846211984250192 -0.007994156253699203 -0.02347278276087672
0.028986055979539377 -0.0069295233864894445 -0.030017869006566
0.03023036972348389 -0.0069295233864890005 -0.029303974266264077
0.03147468346742843 -0.006929523386488501 -0.028590079525962153
0.03302985260120625 -0.007797529228187827 -0.0283475511389214
0.03427191114792358 -0.007797529228187328 -0.027634950263166647
0.035513961020805423 -0.0077975292281868835 -0.026922354363814016
0.036756019567522724 -0.0077975292281864395 -0.026209753488059262
0.03799807811424005 -0.007797529228185995 -0.025497152612304452
0.0392401279871219 -0.007797529228185496 -0.024784556712951822
0.0404821865338392 -0.007797529228185052 -0.024071955837197068
0.041724240743638785 -0.007797529228184608 -0.023359357449643348
0.04267350803031267 -0.0069295233864843375 -0.022165026365604523
0.029464535420944987 -0.005864816302972975 -0.0308518554635675
0.0307088491648895 -0.005864816302972531 -0.030137960723265578
0.03195316290883404 -0.005864816302972031 -0.029424065982963654
0.03350746486949904 -0.00673475176855054 -0.02918002611900372
0.03474952341621637 -0.00673475176855004 -0.028467425243248967
0.035991573289098217 -0.006734751768549596 -0.027754829343896337
0.04468596403368136 -0.0067347517685463765 -0.022766634161697608
0.0459280191108645 -0.006734751768545932 -0.02205403527650368
0.0468849295709354 -0.00586481630296648 -0.020857328104060047
0.0311872952534831 -0.004800183435759053 -0.03097188904653947
0.03243160899742764 -0.004800183435758554 -0.030257994306237546
0.033985043784979824 -0.0056720485252163 -0.030012442965358432
0.03522710233169715 -0.0056720485252158 -0.029299842089603678
0.050131764992661754 -0.005672048525210305 -0.020748654471996197
0.0510963166311475 -0.00480018343575167 -0.01954957235572019
0.03570471459999 -0.004609271065578513 -0.030132317069686054
0.054335544227271076 -0.00460927106557163 -0.01944333180121638
0.03291008843883325 -0.0037354763522420287 -0.031091980763239047
0.034154402182777766 -0.0037354763522415846 -0.030378086022937123
0.03463288162418343 -0.002670769268725115 -0.031212072479938624
0.03618229351547078 -0.0035465678222443286 -0.030964733916040765
0.05729723416450164 -0.0035465678222365016 -0.01885055037954303
0.03790195565664542 -0.002483790362606597 -0.03108461299677051
0.036355641456721544 -0.0016061364015111934 -0.03133210606291048
0.059997604326434584 -0.0016061364015024227 -0.017768105001893353
0.038078434642071696 -0.0005414293179942242 -0.03145219777961006
0.03855688073066535 0.0005232035492192533 -0.032286126102883894
0.04009920538713635 -0.0003583096596346258 -0.03203690394745279
0.04057681765542914 0.0007044678000026616 -0.032869378927535164
0.04075812000460907 0.0026525434999496444 -0.03324014614285736
0.04229645511762725 0.0017671710433373455 -0.032989194898135066
0.06813302237138857 0.002652543499959803 -0.017534461856214878
0.042480913189959196 0.0037172505834666136 -0.03336023785955694
0.044203706375309404 0.004781957666983638 -0.03348032957625652
0.04621336698929282 0.004955429205946993 -0.03406136492954709
0.046404945649253126 0.0069112976177140295 -0.03443434961622999
0.0765003063142819 0.006018206665595327 -0.017791463679134034
0.04841061238286598 0.007080909908918964 -0.035013658368430456
0.048888224651158774 0.008143687368556252 -0.03584613334851283
0.08095834226575452 0.009040637568456411 -0.01682710640835311
0.02770976644796405 -0.008194716743278152 -0.02787945148923482
0.02895633538913578 -0.008194716743277708 -0.027164262884385726
0.03020291300414299 -0.008194716743277208 -0.026449069303134565
0.03144948194531472 -0.008194716743276764 -0.025733880698285472
0.032696050886486416 -0.00819471674327632 -0.025018692093436323
0.033942628501493655 -0.00819471674327582 -0.024303498512185162
0.03518919744266538 -0.008194716743275376 -0.023588309907336014
0.03643577505767259 -0.008194716743274932 -0.022873116326084852
0.03768234399884432 -0.008194716743274433 -0.02215792772123576
0.025695966506303514 -0.0071280800358833885 -0.030145331609255754
0.026942544121310752 -0.007128080035882889 -0.029430138028004593
0.02818911306248248 -0.007128080035882445 -0.028714949423155445
0.029435682003654207 -0.007128080035882001 -0.027999760818306352
0.039408259554534475 -0.007128080035878281 -0.022278237050307237
0.040654834567391024 -0.007128080035877837 -0.021563044961976696
0.026175279768009985 -0.006061517544790729 -0.03098077140944877
0.027421857383017223 -0.006061517544790229 -0.03026557782819761
0.0436272917831258 -0.006061517544784234 -0.020968104068990023
0.026654626382528412 -0.004994880837394966 -0.0318162693433694
0.02790120399753565 -0.004994880837394466 -0.031101075762118235
0.047846354762378446 -0.0049948808373870834 -0.01965803071432104
0.028380517259242122 -0.003928318346301751 -0.03193651556231125
0.02962708620041385 -0.003928318346301307 -0.031221326957462103
0.05206538525620269 -0.0039283183462929805 -0.01834789872828424
0.031353001756104004 -0.0028616816389051003 -0.031341636286533636
0.055037875824749394 -0.0028616816388963295 -0.017753015969025177
0.0330789259856297 -0.0017950449315088934 -0.031461940639203156
0.03480484154131985 -0.0007284082241127421 -0.031582249968274745
0.03653072374419797 0.0003381542669804172 -0.03170250116361856
0.06443466512901383 0.001404790974386283 -0.016803805003240135
0.03873599458824212 0.002471427681772387 -0.0326583034502087
0.06616058068470398 0.0024714276817825453 -0.016924114332311613
0.040941223405638744 0.004604626880261253 -0.0336140525794732
0.04266711428235237 0.005671189371354357 -0.03373429879841505
0.04439302983804258 0.0067378260787506195 -0.033854608127486585
0.07431076249068339 0.006737826078761666 -0.01669003682348924
0.04487237645256101 0.007804462786146327 -0.03469010606140721
0.0790091378642589 0.008871025277251421 -0.01621540376665348
0.025661355846522238 -0.008399136480612357 -0.027288426787137554
0.026910188658756662 -0.008399136480611857 -0.026571939341339168
0.028159021470991086 -0.008399136480611413 -0.025855451895540782
0.02940785428322551 -0.00839913648061097 -0.02513896444974245
0.030656678421624423 -0.00839913648061047 -0.024422481980346133
0.031905511233858846 -0.008399136480610025 -0.023705994534547803
0.03315434404609327 -0.008399136480609581 -0.022989507088749417
0.03440316818449218 -0.008399136480609082 -0.022273024619353154
0.01989742292065244 -0.0073305701493396325 -0.03170786347416499
0.021146247059051354 -0.007330570149339188 -0.030991381004768725
0.022395079871285778 -0.007330570149338744 -0.03027489355897034
0.023643912683520202 -0.007330570149338245 -0.02955840611317201
0.024892745495754626 -0.007330570149337801 -0.028841918667373623
0.02614156963415354 -0.0073305701493373565 -0.02812543619797736
0.038629880408826756 -0.007330570149332694 -0.020960571692797858
0.020377636708283742 -0.0062620038180646875 -0.032544872885004794
0.021626460846682655 -0.0062620038180642434 -0.03182839041560853
0.02287529365891708 -0.006262003818063799 -0.031111902969810146
0.024124126471151502 -0.0062620038180633 -0.030395415524011815
0.04160775114709139 -0.0062620038180568605 -0.020364611188443016
0.022106641281501888 -0.005193511703092346 -0.03266534169272067
0.02335547409373631 -0.005193511703091902 -0.03194885424692229
0.024604306905970735 -0.005193511703091402 -0.031232366801123956
0.044585592869461704 -0.0051935117030840194 -0.019768590062159475
0.023835687881367612 -0.004124945371816902 -0.03278586365776204
0.025084520693602036 -0.004124945371816402 -0.03206937621196371
0.02556473448123328 -0.003056379040541457 -0.03290638562280351
0.026813567293467705 -0.003056379040541013 -0.03218989817700513
0.028542571866685906 -0.0019878869255686715 -0.032310366984721006
0.02979140467892033 -0.001987886925568172 -0.03159387953892262
0.031520451278786 -0.0009193205942927274 -0.03171440150396404
0.05774588916007939 -0.0009193205942830129 -0.016668194502970635
0.033249497878651724 0.00014924573698266164 -0.031834923469005516
0.03497850245186987 0.0012177378519550586 -0.031955392276721284
0.036707549051735594 0.002286304183230503 -0.032075914241762815
0.03891677608642055 0.0044233626294777895 -0.03303338748391632
0.04112602780008201 0.0065604952920282344 -0.03399092383619967
0.07234679606292951 0.006560495292039781 -0.016078767549652984
0.04285504104713567 0.007628987407000576 -0.034111387667513426
0.016100172447630734 -0.008607415465707702 -0.03100365472236949
0.017351260457092343 -0.008607415465707258 -0.03028587341202399
0.018602348466553953 -0.008607415465706814 -0.029568092101678434
0.01985343647601559 -0.008607415465706314 -0.028850310791332878
0.0211045244854772 -0.00860741546570587 -0.02813252948098738
0.02235561249493881 -0.008607415465705426 -0.027414748170641823
0.023606700504400446 -0.008607415465704926 -0.026696966860296267
0.024857788513862056 -0.008607415465704482 -0.025979185549950712
0.026108876523323693 -0.008607415465704038 -0.025261404239605212
0.027359964532785302 -0.008607415465703538 -0.024543622929259656
0.028611052542246912 -0.008607415465703094 -0.0238258416189141
0.029862149225544032 -0.00860741546570265 -0.023108055332166477
0.03111322856117016 -0.00860741546570215 -0.022390278998223045
0.014079068715616094 -0.007536919510554463 -0.033277743207221655
0.015330165398913215 -0.007536919510554019 -0.032559956920473976
0.016581253408374852 -0.007536919510553519 -0.03184217561012842
0.01783234141783646 -0.007536919510553075 -0.03112439429978292
0.01908342942729807 -0.007536919510552631 -0.030406612989437365
0.020334517436759708 -0.007536919510552131 -0.02968883167909181
0.021585605446221318 -0.007536919510551687 -0.02897105036874631
0.022836693455682927 -0.007536919510551243 -0.028253269058400754
0.024087781465144564 -0.007536919510550744 -0.0275354877480552
0.035347582224134644 -0.00753691951054658 -0.021075450978543242
0.03659867023359625 -0.007536919510546136 -0.020357669668197687
0.014560149676360157 -0.00646642355540028 -0.03411626409498064
0.015811246359657277 -0.006466423555399836 -0.03339847780823296
0.017062334369118914 -0.0064664235553993366 -0.03268069649788741
0.018313422378580524 -0.0064664235553988925 -0.03196291518754191
0.03958192721326356 -0.00646642355539101 -0.019760627935265618
0.016292327320401395 -0.0053959276002456535 -0.034236998695991894
0.017543415329863032 -0.005395927600245154 -0.03351921738564634
0.018794503339324642 -0.00539592760024471 -0.03280143607530084
0.04256518592769801 -0.005395927600235884 -0.019163585207053024
0.018024462937795083 -0.004325505861394019 -0.034357680139677604
0.019275550947256692 -0.004325505861393575 -0.033639898829332104
0.0205266389567183 -0.004325505861393131 -0.03292211751898655
0.04554841042193686 -0.00432550586138386 -0.018566484842753028
0.01975663190800081 -0.0032550099062393367 -0.034478419717091036
0.02100771991746242 -0.0032550099062388926 -0.03376063840674548
0.022258807926924057 -0.003255009906238393 -0.033042857096399925
0.048531668702679526 -0.0032550099062286786 -0.017969442363360566
0.022739888887668175 -0.0021845139510842104 -0.033881377984158856
0.023990976897129784 -0.0021845139510837663 -0.033163596673813356
0.052766015860267385 -0.002184513951073108 -0.01665461807598234
0.025723112514523444 -0.0011140922122321872 -0.03328427811749912
0.02697420052398508 -0.0011140922122316876 -0.03256649680715357
0.029957457503652446 -4.359625707661685e-05 -0.03196945507422144
0.03168962647385812 0.0010268996980780654 -0.03209019465163482
0.06046466803914635 0.0010268996980887235 -0.015581214560883183
0.03688610003166326 0.004238313347239009 -0.03245235525014739
0.03909932528363655 0.006379231041244771 -0.03341155260518991
0.009012324985532894 -0.008819553698560745 -0.033295848339648715
0.010265668192221716 -0.008819553698560245 -0.032576773164756045
0.011519020072746022 -0.008819553698559801 -0.0318576930134612
0.012772363279434845 -0.008819553698559357 -0.031138617838568527
0.014025706486123668 -0.008819553698558857 -0.030419542663675803
0.015279058366647974 -0.008819553698558413 -0.02970046251238101
0.016532401573336797 -0.008819553698557914 -0.028981387337488285
0.01778575345386113 -0.00881955369855747 -0.02826230718619349
0.019039096660549953 -0.008819553698557026 -0.027543232011300767
0.02029244854107426 -0.008819553698556526 -0.026824151860005974
0.021545791747763082 -0.008819553698556082 -0.02610507668511325
0.022799134954451905 -0.008819553698555638 -0.025386001510220524
0.02405248683497621 -0.008819553698555138 -0.02466692135892573
0.025305830041665034 -0.008819553698554694 -0.023947846184033006
0.02655918192218934 -0.008819553698554194 -0.023228766032738213
0.027812525128878163 -0.00881955369855375 -0.022509690857845488
0.029065877009402497 -0.008819553698553306 -0.021790610706550695
0.009494273119389829 -0.0077471281195273245 -0.034135880704326826
0.010747616326078652 -0.007747128119526825 -0.03341680552943416
0.012000968206602958 -0.007747128119526381 -0.03269772537813931
0.01325431141329178 -0.007747128119525937 -0.03197865020324664
0.014507654619980603 -0.007747128119525437 -0.031259575028353914
0.03205451155663708 -0.007747128119518942 -0.021192492721443357
0.033307863437161384 -0.007747128119518498 -0.020473412570148564
0.034561206643850206 -0.007747128119517999 -0.01975433739525584
0.009976221253246764 -0.006674702540493904 -0.03497591306900488
0.011229564459935587 -0.006674702540493405 -0.03425683789411221
0.012482916340459893 -0.0066747025404929605 -0.033537757742817365
0.03754984986492027 -0.006674702540483635 -0.019156214433746377
0.011711512593792467 -0.005602276961459984 -0.035096870258790325
0.012964864474316773 -0.00560227696145954 -0.034377790107495476
0.04053849308599028 -0.005602276961449326 -0.01855809147223697
0.013446779255361696 -0.004529925598729112 -0.03521776433844587
0.014700122462050519 -0.004529925598728668 -0.0344986891635532
0.043527102086864805 -0.004529925598717954 -0.01795991087464005
0.015182070595907454 -0.0034575000196952477 -0.03533872152823131
0.016435413802596277 -0.003457500019694748 -0.034619646353338585
0.016917361936453157 -0.002385074440661328 -0.03545967871801664
0.018170713816977463 -0.0023850744406608837 -0.03474059856672185
0.049504386273807655 -0.002385074440649282 -0.016763666245485753
0.01990600515752322 -0.0013126488616269638 -0.034861555756507234
0.021159357038047555 -0.0013126488616265197 -0.03414247560521244
0.0228946150257813 -0.00024029749889570295 -0.03426337466127011
0.024147966906305607 -0.00024029749889520335 -0.033544294509975314
0.05548163728141525 -0.00024029749888360152 -0.015567363383075683
0.027136601453540132 0.0008321280801391051 -0.032946176524867976
0.02838995333406444 0.0008321280801396047 -0.03222709637357318
0.030125244674610197 0.001904553659173469 -0.03234805356335857
0.03311388789568026 0.002976979238207833 -0.03174993060184911
0.03484915455724946 0.00404933060093865 -0.03187082468150476
0.0353311026911064 0.00512175617997207 -0.03271085704618282
0.037066394031652156 0.00619418175900599 -0.032831814235968204
0.07013536095160885 0.007266607338051456 -0.014975837313012719
0.03928360015324278 0.008338958700770227 -0.03379274565670398
0.006439757259591672 -0.010109765143840599 -0.03187493638533401
0.007695364337343191 -0.0101097651438401 -0.031154562369492045
0.008950971415094683 -0.010109765143839655 -0.030434188353650082
0.010206578492846202 -0.010109765143839156 -0.029713814337808064
0.011462176896762238 -0.010109765143838711 -0.028993445298368226
0.012717783974513758 -0.010109765143838267 -0.028273071282526208
0.01397339105226525 -0.010109765143837768 -0.027552697266684245
0.004411325058246318 -0.009035484157231877 -0.03415717012488756
0.0056669321359978375 -0.009035484157231433 -0.0334367961090456
0.006922539213749357 -0.009035484157230989 -0.03271642209320358
0.008178146291500876 -0.009035484157230489 -0.031996048077361616
0.009433753369252368 -0.009035484157230045 -0.031275674061519654
0.010689360447003887 -0.009035484157229545 -0.030555300045677636
0.011944958850919923 -0.009035484157229101 -0.029834931006237797
0.013200565928671443 -0.009035484157228657 -0.02911455699039578
0.014456173006422934 -0.009035484157228157 -0.028394182974553817
0.01571177141033897 -0.009035484157227713 -0.027673813935113922
0.016967387161925973 -0.009035484157227214 -0.026953434942869836
0.01822298556584201 -0.00903548415722677 -0.026233065903429997
0.01947859264359353 -0.009035484157226326 -0.02551269188758798
0.02073419972134502 -0.009035484157225826 -0.024792317871746017
0.02198980679909654 -0.009035484157225382 -0.024071943855904054
0.023245405203012576 -0.009035484157224882 -0.02335157481646416
0.004894140365216071 -0.007961128954319219 -0.034998713966484796
0.00614974744296759 -0.007961128954318775 -0.03427833995064283
0.00740535452071911 -0.00796112895431833 -0.033557965934800815
0.030006255898739898 -0.007961128954309948 -0.020591248578851473
0.031261854302655934 -0.007961128954309449 -0.019870879539411634
0.006632562749937343 -0.006886773751406117 -0.03511988379224007
0.007888169827688862 -0.006886773751405673 -0.03439950977639805
0.03551149084288022 -0.006886773751395403 -0.018551301333482928
0.007115378056907096 -0.005812418548493459 -0.035961427633837306
0.008370985134658615 -0.005812418548493015 -0.03524105361799529
0.038505513366284605 -0.005812418548481801 -0.017952101124517894
0.008853800441628368 -0.004738063345580357 -0.036082597459592525
0.010109407519379887 -0.004738063345579857 -0.03536222344375056
0.01059222282634964 -0.003663708142667199 -0.0362037672853478
0.011847829904101131 -0.003663708142666755 -0.035483393269505836
0.012330611858258816 -0.0025894271560571447 -0.03632487897737541
0.013586218936010336 -0.002589427156056645 -0.03560450496153339
0.04623195264930388 -0.0025894271560445437 -0.01687480941277414
0.015324632646896125 -0.001515071953143543 -0.03572567976369073
0.017063055031617397 -0.000440716750230441 -0.035846849589446006
0.01831866210936889 -0.0004407167502299414 -0.035126475573604043
0.05347560997816547 -0.00044071675021689627 -0.014956031993160812
0.020057075820254677 0.0006336384526831607 -0.03524765037576133
0.02131269157184168 0.0006336384526836603 -0.034527271383517244
0.025562286085418412 0.0017079194392946029 -0.033207640020262996
0.05820802240086262 0.0017079194393067043 -0.01447794297858307
0.02855630687405572 0.0027822746422082045 -0.032608440806578376
0.031550336336528484 0.0038566298451217507 -0.03200923661649163
0.033288758721249756 0.004930985048034908 -0.032130406442246906
0.06467889229586019 0.00493098504804651 -0.014121080928207908
0.06641731468058146 0.006005340250959668 -0.014242250753963182
0.06815569503865515 0.007079621237569722 -0.014363367422392859
0.037248385444849985 0.008153976440470723 -0.033214231801626914
0.0030850711650698415 -0.010331618518027608 -0.032015360065615506
0.004342933440048546 -0.010331618518027108 -0.031293692185226374
0.005600795715027279 -0.010331618518026664 -0.030572024304837242
0.006858657990005984 -0.01033161851802622 -0.029850356424448055
0.008116520264984689 -0.01033161851802572 -0.029128688544058923
0.009374391213798905 -0.010331618518025276 -0.028407015687267667
0.010632253488777638 -0.010331618518024777 -0.027685347806878535
0.011890115763756343 -0.010331618518024333 -0.026963679926489403
0.013147978038735048 -0.010331618518023888 -0.026242012046100216
0.002310858017361639 -0.00925540790753926 -0.033580025130793445
0.0035687202923403716 -0.009255407907538815 -0.03285835725040426
0.0048265825673190765 -0.009255407907538316 -0.032136689370015126
0.01488948944098431 -0.009255407907534596 -0.026363341350499836
0.016147351715963015 -0.009255407907534152 -0.025641673470110704
0.01740522266477723 -0.009255407907533653 -0.02492000061331945
0.018663084939755936 -0.009255407907533209 -0.02419833273293026
0.01992094721473467 -0.009255407907532764 -0.02347666485254113
0.021178809489713374 -0.009255407907532265 -0.022754996972151997
0.022436671764692107 -0.00925540790753182 -0.022033329091762865
0.001536678222465504 -0.008179123080747863 -0.03514474832969894
0.002794540497444209 -0.008179123080747364 -0.034423080449309806
0.02417821651975338 -0.008179123080739426 -0.02215471652989004
0.025436078794732114 -0.008179123080738981 -0.021433048649500908
0.026693949743546302 -0.008179123080738537 -0.020711375792709652
0.027951812018525035 -0.008179123080738038 -0.01998970791232052
0.02920967429350374 -0.008179123080737594 -0.019268040031931388
0.002020360702548074 -0.007102838253955968 -0.0359878036482153
0.003278222977526779 -0.007102838253955468 -0.03526613576782617
0.03220908132354375 -0.007102838253944754 -0.01866775958966943
0.03346694359852248 -0.00710283825394431 -0.0179460917092803
0.003761905457609349 -0.006026553427163572 -0.03610919108634253
0.005019767732588082 -0.006026553427163128 -0.03538752320595334
0.03646635930239797 -0.006026553427151471 -0.017345806290616217
0.005503450212670652 -0.004950268600371233 -0.0362305785244697
0.007244994967731927 -0.0038739837735788374 -0.03635196596259699
0.04120731195488281 -0.003873983773566292 -0.016866912788841337
0.008986506369981162 -0.0027977731630896008 -0.03647329526699655
0.04420668823426138 -0.0027977731630765557 -0.01626657271993115
0.010728051125042437 -0.001721488336297261 -0.03659468270512373
0.047206098126667095 -0.0017214883362837163 -0.015666290635456492
0.012469595880103712 -0.0006452035095048658 -0.036716070143250956
0.013727466828917928 -0.0006452035095044217 -0.0359943972864597
0.05020550749864269 -0.000645203509490877 -0.015066008849565993
0.01546901158397923 0.0004310813172879735 -0.036115784724586986
0.017210556339040506 0.0015073661440803132 -0.036237172162714215
0.01846841861401921 0.0015073661440807573 -0.03551550428232503
0.020209963369080514 0.002583650970873097 -0.03563689172045226
0.02146782564405922 0.002583650970873541 -0.034915223840063125
0.022725696592873434 0.0025836509708740407 -0.03419355098327187
0.02398355886785214 0.002583650970874485 -0.03347188310288268
0.02572507027010143 0.003659861581363777 -0.03359321240728225
0.026982932545080135 0.0036598615813642765 -0.032871544526893115
0.028724477300141438 0.004736146408156616 -0.032992931965020345
0.029982339575120143 0.004736146408157116 -0.03227126408463116
0.06268679341990877 0.004736146408169217 -0.0135078792889049
0.031723884330181445 0.005812431234949456 -0.03239265152275844
0.033465437759078204 0.00688871606174174 -0.03251403398448355
0.03520694916132744 0.007964926672231087 -0.03263536328888311
0.0022398192729732314 -0.010557264118032872 -0.0307119533627766
0.0034999454190146606 -0.010557264118032428 -0.029988986641438176
0.004760062891220551 -0.010557264118031928 -0.029266024896501874
0.00602018903726198 -0.010557264118031484 -0.02854305817516345
0.007280306509467899 -0.01055726411803104 -0.027820096430227148
0.0085404326555093 -0.01055726411803054 -0.027097129708888723
0.009800550127715218 -0.010557264118030096 -0.026374167963952422
0.01106067627375662 -0.010557264118029597 -0.025651201242613997
0.012320793745962538 -0.010557264118029153 -0.024928239497677696
0.013580919892003968 -0.010557264118028709 -0.02420527277633927
0.014841037364209886 -0.010557264118028209 -0.023482311031402914
-0.0010560255170966593 -0.009479123883666285 -0.03372535223569556
0.0002040919551092868 -0.009479123883665785 -0.03300239049075926
0.0014642181011506883 -0.009479123883665341 -0.032279423769420834
0.014065436192387343 -0.009479123883660678 -0.025049781438047147
0.015325553664593261 -0.009479123883660179 -0.02432681969311079
0.016585679810634663 -0.009479123883659735 -0.023603852971772366
0.01784579728284058 -0.009479123883659235 -0.022880891226836064
0.019105923428881982 -0.009479123883658791 -0.02215792450549764
0.0203660409010879 -0.009479123883658291 -0.021434962760561338
0.02162616704712933 -0.009479123883657847 -0.020711996039222913
-0.0018316020099426455 -0.008400909432995596 -0.03529288575246947
-0.0005714758639012718 -0.008400909432995152 -0.03456991903113105
0.0006886416083046742 -0.008400909432994652 -0.033846957286194745
0.023370834172530636 -0.00840090943298627 -0.020833601089722098
0.024630960318572037 -0.00840090943298577 -0.020110634368383673
0.02589108646461344 -0.008400909432985326 -0.019387667647045248
-8.692621070588435e-05 -0.007322694982324018 -0.03541448582656659
0.030155997208262092 -0.007322694982312805 -0.018063344231269762
0.0003976234424895031 -0.006244480531652941 -0.036259052622002075
0.03442090795191072 -0.006244480531640284 -0.016739020815494166
0.0021422905678908366 -0.005166266080981308 -0.036380657672501315
0.03742570642765472 -0.005166266080968207 -0.01613765615881374
0.0038869663671276256 -0.004088051630309786 -0.03650225774659838
0.03917037702259024 -0.004088051630296685 -0.016259259218752042
0.005631633492528931 -0.003009837179638153 -0.03662386279709756
0.007376275938953736 -0.001931696945269623 -0.03674540473746701
0.009120943064355014 -0.0008534824945980457 -0.0368670097879662
0.01086561886359183 0.0002247319560735317 -0.036988609862063315
0.013870412135034538 0.0013029464067456087 -0.036387248191224075
0.015615079260435843 0.0023811608574171306 -0.036508853241723316
0.05593898148931084 0.0023811608574321186 -0.013373995293126495
0.01861987253187855 0.0034593753080892076 -0.035907491570884076
0.022884758596550675 0.0045375155424586255 -0.034583105044978746
0.024144876068756593 0.004537515542459125 -0.033860143300042445
0.06068841287026061 0.00453751554247267 -0.01289417805085774
0.0271496693401993 0.005615729993131202 -0.033258781629203205
0.030154462611642036 0.006693944443803224 -0.03265741995836402
0.031899138410878825 0.007772158894474801 -0.03277902003246108
-0.0007205487693692225 -0.011020207277622318 -0.028821562435886905
0.0005440877711265779 -0.011020207277621819 -0.02809600798545414
0.001808724311622406 -0.011020207277621374 -0.027370453535021377
0.0030733695259537175 -0.011020207277620875 -0.02664489410818649
0.008131915687936975 -0.011020207277619043 -0.02374267630645549
0.009396560902268258 -0.011020207277618543 -0.023017116879620603
0.010661197442764087 -0.0110202072776181 -0.022291562429187894
0.011925833983259887 -0.0110202072776176 -0.02156600797875513
0.013190479197591198 -0.011020207277617156 -0.020840448551920243
0.014455115738086999 -0.011020207277616656 -0.02011489410148748
0.015719752278582827 -0.011020207277616212 -0.019389339651054716
0.016984388819078627 -0.011020207277615712 -0.018663785200622007
0.018249025359574456 -0.011020207277615268 -0.017938230750189244
0.019513661900070256 -0.011020207277614824 -0.01721267629975648
-0.005292819605766913 -0.009938133579194597 -0.032571374963293875
-0.004028174391435629 -0.009938133579194153 -0.03184581553645899
-0.0027635378509397734 -0.009938133579193709 -0.031120261086026224
-0.0011319543308627444 -0.010786843182100603 -0.030853981767740846
0.0001304270124058704 -0.010786843182100103 -0.030129721181855307
0.0013928083556744852 -0.010786843182099659 -0.029405460595969712
0.0026551896989431 -0.01078684318209916 -0.028681200010084118
0.003917571042211715 -0.010786843182098715 -0.027956939424198524
0.005179943711644819 -0.010786843182098216 -0.027232683814715053
0.006442325054913434 -0.010786843182097772 -0.02650842322882946
0.0077047063981820485 -0.010786843182097328 -0.025784162642943864
0.008967087741450663 -0.010786843182096828 -0.02505990205705827
0.010229469084719278 -0.010786843182096384 -0.024335641471172675
0.011491850427987893 -0.010786843182095884 -0.02361138088528708
0.012754223097420997 -0.01078684318209544 -0.02288712527580361
0.014016604440689612 -0.01078684318209494 -0.022162864689918016
0.015278985783958227 -0.010786843182094497 -0.02143860410403242
0.01654136712722684 -0.010786843182094052 -0.020714343518146827
0.017803748470495456 -0.010786843182093553 -0.019990082932261233
0.018735309358995506 -0.009938133579185715 -0.01878582049946309
0.019999945899491306 -0.009938133579185271 -0.018060266049030327
0.021264591113822617 -0.009938133579184771 -0.01733470662219544
0.022529227654318446 -0.009938133579184327 -0.016609152171762676
-0.0031712915172562584 -0.009706699107551175 -0.03314857623546458
-0.0019089188478231822 -0.009706699107550731 -0.03242432062598105
-0.0006465375045545396 -0.009706699107550287 -0.03170006004009546
0.0006158438387140752 -0.009706699107549788 -0.030975799454209918
0.01576440261026643 -0.009706699107544181 -0.022284682376387033
0.017026783953535046 -0.009706699107543737 -0.02156042179050144
0.01828916529680366 -0.009706699107543237 -0.020836161204615844
0.019551546640072276 -0.009706699107542793 -0.020111900618730305
0.02081392798334089 -0.009706699107542294 -0.01938764003284471
0.022076309326609478 -0.00970669910754185 -0.018663379446959116
-0.0060711721468416635 -0.008856059880765488 -0.034144519163000375
-0.004806535606345863 -0.008856059880764988 -0.03341896471256767
0.023015511653739495 -0.008856059880754719 -0.017456741921036467
0.024280148194235296 -0.008856059880754219 -0.01673118747060376
-0.005584888147420641 -0.007773986182335935 -0.03499210891227422
-0.003948256034216668 -0.008626555033001304 -0.03471891509370478
-0.0026858746909480535 -0.008626555033000805 -0.033994654507819244
0.022561726152917683 -0.008626555032991479 -0.019509457719313783
0.023824098822350814 -0.008626555032990979 -0.018785202109830312
0.02508648016561943 -0.008626555032990535 -0.018060941523944718
0.026031068734152146 -0.007773986182324222 -0.016853222769444842
-0.0034628392079084636 -0.007546410958450989 -0.03556499336605945
0.02683427833519625 -0.007546410958439775 -0.01818275921041379
0.028096659678464864 -0.007546410958439276 -0.017458498624528196
-0.005098637500811631 -0.006691986700209429 -0.03583964052782035
0.029046601135588268 -0.0066919867001967726 -0.016249640507723317
-0.0033476836080827965 -0.005609838785476273 -0.0359617339603891
-0.0017150410383315884 -0.006466266883900118 -0.03568681105252858
0.031106839191310354 -0.006466266883887961 -0.016856055725111674
0.03236921186074346 -0.006466266883887517 -0.016131800115628203
0.03332682810930873 -0.0056098387854627285 -0.014920625039426538
-0.0028614329614737866 -0.004527839303349768 -0.036809265575935224
-0.0012296242120233836 -0.005386122809349803 -0.036532889324883244
0.03537939137358889 -0.005386122809336258 -0.015529357216211681
-0.0011105037477214252 -0.003445765604919715 -0.036931295898374183
0.0005181652837178974 -0.0043059787347989875 -0.036654711987754385
0.038093280183278205 -0.003445765604905171 -0.01443907857418636
0.0006404167921954529 -0.0023636919064897177 -0.03705333119721521
0.002265963453294745 -0.003225834660248228 -0.03677652967422346
0.04013736732124404 -0.0032258346602341836 -0.0150487329985447
0.0023913373321122755 -0.001281618208059665 -0.03717536649605624
0.004013728270059552 -0.002145764802000405 -0.03689828922696492
0.04188513127062529 -0.0021457648019863607 -0.015170493048926315
0.005761526439636372 -0.0010656207274496454 -0.03702010691343399
0.044895308181320065 -0.0010656207274351015 -0.014568051642430413
0.0075093246092131916 1.4523347101225159e-05 -0.037141924599903064
0.047905485178753204 1.452334711621317e-05 -0.01396561018617054
0.007644098951862827 0.0019646028872304377 -0.03754147239257938
0.009257122778790011 0.0010946674216519847 -0.03726374228637208
0.05091566200270964 0.0010946674216674168 -0.01336316882943861
0.012267293617799935 0.0021748114962032994 -0.03666130436335774
0.05392583891340441 0.0021748114962187315 -0.012760727422942764
0.01065966470611096 0.00304667658566099 -0.036937948264585574
0.012410585246027783 0.004128750284091043 -0.03705998356342666
0.014015091787376754 0.003254955570754059 -0.036783122049826755
0.015762889956953574 0.004335099645304874 -0.03690493973629583
0.01702527130022219 0.004335099645305318 -0.03618067915041023
0.014161514459780117 0.00521082398252104 -0.03718201388586556
0.05842385409398204 0.005210823982537471 -0.011787573285904351
0.015912426325861484 0.006292897680951093 -0.03730405416110877
0.017177071540192768 0.006292897680951592 -0.03657849473427388
0.018773036116986996 0.005415169503553141 -0.03630243870315164
0.0200354087864201 0.005415169503553585 -0.03557818309366817
0.021297790129688715 0.005415169503554085 -0.034853922507782575
0.020192628620605474 0.007374971379382089 -0.0359749755826822
0.021457273834936785 0.007374971379382533 -0.03524941615584731
0.022721910375432586 0.007374971379383033 -0.03452386170541455
0.024307969642534205 0.006495313578105288 -0.03425147960836605
0.02557035098580282 0.006495313578105788 -0.03352721902248046
0.028580530498648254 0.007575457652657103 -0.03292477612306399
0.0649412609280639 0.008457045077828018 -0.011428119755592658
0.010608550676503847 -0.01234143394320708 -0.019392771478077553
0.011875451088062344 -0.012341433943206581 -0.01866591818669555
0.013142351499620841 -0.012341433943206137 -0.017939064895313495
0.014409243237343883 -0.012341433943205637 -0.01721221658033356
0.01567614364890238 -0.012341433943205193 -0.01648536328895156
0.016943035386625394 -0.012341433943204694 -0.015758514973971627
0.01820993579818389 -0.01234143394320425 -0.01503166168258957
-0.009174644019049966 -0.011257430620905728 -0.031871490531568236
-0.007907743607491441 -0.011257430620905229 -0.031144637240186235
-0.006640851869768455 -0.011257430620904785 -0.0304177889252063
-0.00537395145820993 -0.01125743062090434 -0.029690935633824245
-0.004107059720486944 -0.011257430620903841 -0.02896408731884431
-0.0028401593089284194 -0.011257430620903397 -0.02823723402746231
-0.0015732588973698947 -0.011257430620902897 -0.02751038073608031
-0.0003063671596468809 -0.011257430620902453 -0.026783532421100376
0.0009605332519116161 -0.011257430620901954 -0.02605667912971832
0.00222742498963463 -0.01125743062090151 -0.025329830814738385
0.003494325401193127 -0.01125743062090101 -0.024602977523356384
0.004761217138916168 -0.011257430620900566 -0.02387612920837645
0.007295017962033162 -0.011257430620899622 -0.022422422625612393
0.008561909699756176 -0.011257430620899123 -0.02169557431063246
0.0098288101113147 -0.011257430620898679 -0.020968721019250458
0.011095701849037715 -0.011257430620898234 -0.020241872704270525
0.012362602260596212 -0.011257430620897735 -0.019515019412888523
0.013629502672154709 -0.01125743062089729 -0.018788166121506467
0.01489639440987775 -0.011257430620896791 -0.018061317806526533
0.016163294821436247 -0.011257430620896347 -0.017334464515144532
0.01743018655915926 -0.011257430620895847 -0.0166076162001646
0.018697086970717758 -0.011257430620895403 -0.015880762908782542
0.01996397870844077 -0.011257430620894904 -0.015153914593802664
0.021230879119999296 -0.01125743062089446 -0.014427061302420607
-0.008687492846516098 -0.010173427298596938 -0.03272059175776121
-0.007420592434957574 -0.010173427298596438 -0.03199373846637921
-0.006153700697234588 -0.010173427298595994 -0.031266890151399274
-0.004886800285676063 -0.01017342729859555 -0.030540036860017217
-0.003619908547953077 -0.01017342729859505 -0.029813188545037284
-0.002353008136394552 -0.010173427298594606 -0.029086335253655282
0.003981476573726994 -0.01017342729859222 -0.025452078749549356
0.005248368311450036 -0.010173427298591775 -0.024725230434569423
0.006515268723008533 -0.010173427298591275 -0.02399837714318742
0.02045112988097464 -0.010173427298586113 -0.016003015819995636
0.021718030292533164 -0.010173427298585669 -0.01527616252861358
-0.009467233411705245 -0.009089423976288591 -0.03429654129893406
-0.008200341673982259 -0.009089423976288147 -0.033569692983954125
-0.006933441262423734 -0.009089423976287647 -0.03284283969257212
0.0234720818766255 -0.009089423976276378 -0.015398410463424494
-0.007713190501448419 -0.008005420653979356 -0.0344187942101471
0.025226124786882353 -0.008005420653967144 -0.015520663374637533
-0.007226039328914552 -0.006921417331670565 -0.03526789543634001
0.026980176370974746 -0.006921417331657853 -0.015642911309448393
0.02824706810869776 -0.006921417331657409 -0.01491606299446846
-0.006738921509192752 -0.0058374882256647664 -0.03611693852880532
0.030001086339978056 -0.005837488225651166 -0.015038252795551765
0.03126798675153655 -0.005837488225650667 -0.014311399504169708
-0.0049848699251003326 -0.004753484903355476 -0.03623918646361629
-0.004497718752566493 -0.003669481581046685 -0.03708828768980921
0.03604297645314303 -0.003669481581031697 -0.013829050044652902
-0.0027436758423096674 -0.0025854782587374503 -0.037210540601022246
0.04257201600407476 -0.00041747161410338185 -0.013468949515227424
0.003785370647690467 0.000666531708190865 -0.036850436090475114
0.005539413557947376 0.0017505350305001 -0.0369726890016881
0.009047508052296566 0.003918541675118681 -0.037217189847711996
0.010801559636388958 0.005002544997427971 -0.037339437782522966
0.05640984261019574 0.005002544997444847 -0.011172794934081909
0.012555602546645839 0.006086548319737206 -0.037461690693736005
0.014309654130738175 0.0071705516420464965 -0.03758393862854692
0.01859749786411205 0.008254554964356675 -0.036252484956995845
0.06293888216112742 0.008254554964373106 -0.010812694404656431
0.010556929607105636 -0.013670453320615894 -0.016485278803664516
0.011826085215891347 -0.01367045332061545 -0.015757131647735345
0.013095240824677029 -0.01367045332061495 -0.015028984491806119
0.01436439643346274 -0.013670453320614506 -0.014300837335876948
0.01563355204224845 -0.013670453320614062 -0.013572690179947722
-0.014338155549126347 -0.012584520374437358 -0.03189882964895846
-0.013068999940340637 -0.012584520374436914 -0.031170682493029234
-0.011799844331554982 -0.012584520374436414 -0.030442535337100063
-0.010530688722769271 -0.01258452037443597 -0.029714388181170837
