# .PCD v0.7 - Point Cloud Data file format
VERSION 0.7
FIELDS x y z
SIZE 4 4 4
TYPE F F F
COUNT 1 1 1
WIDTH 1695
HEIGHT 1
VIEWPOINT 0 0 0 1 0 0 0
POINTS 1695
DATA ascii
-0.008096972 0.1249719 0.569
-0.05698397 0.1264533 0.569
-0.05550255 0.1264533 0.569
-0.05402112 0.1264533 0.569
-0.0036527 0.1264533 0.569
-0.002171275 0.1264533 0.569
-0.0006898514 0.1264533 0.569
0.0007915727 0.1264533 0.569
0.002272997 0.1264533 0.569
-0.05994681 0.1279347 0.569
-0.05846539 0.1279347 0.569
0.005235845 0.1279347 0.569
0.006717269 0.1279347 0.569
0.008198693 0.1279347 0.569
0.009680117 0.1279347 0.569
-0.06290967 0.1294161 0.569
-0.06142824 0.1294161 0.569
0.01264297 0.1294161 0.569
0.01412439 0.1294161 0.569
0.01560581 0.1294161 0.569
0.01708724 0.1294161 0.569
0.01856866 0.1294161 0.569
0.02005009 0.1294161 0.569
0.02153151 0.1294161 0.569
0.02301293 0.1294161 0.569
-0.06439109 0.1308976 0.569
-0.06290967 0.1308976 0.569
0.02449436 0.1308976 0.569
0.02597578 0.1308976 0.569
0.02745721 0.1308976 0.569
-0.06439109 0.132379 0.569
-0.06290967 0.132379 0.569
-0.06587251 0.1338604 0.569
-0.06439109 0.1338604 0.569
-0.06439109 0.1353418 0.569
-0.06439109 0.1368233 0.569
-0.06290967 0.1368233 0.569
-0.06290967 0.1383047 0.569
0.03042006 0.1383047 0.569
-0.06142824 0.1397861 0.569
0.03042006 0.1397861 0.569
-0.05994681 0.1412675 0.569
0.03042006 0.1412675 0.569
-0.05846539 0.1427489 0.569
-0.05698397 0.1427489 0.569
-0.05550255 0.1427489 0.569
-0.0525397 0.1442304 0.569
-0.05105827 0.1442304 0.569
-0.04957685 0.1442304 0.569
-0.04809542 0.1442304 0.569
-0.04365115 0.1457118 0.569
-0.04216973 0.1457118 0.569
-0.0406883 0.1457118 0.569
0.03042006 0.1457118 0.569
-0.03624403 0.1471932 0.569
0.03042006 0.1471932 0.569
-0.03328118 0.1486747 0.569
0.03042006 0.1486747 0.569
-0.03031833 0.1501561 0.569
0.03042006 0.1501561 0.569
0.03042006 0.1516375 0.569
-0.04817995 0.1237075 0.5700001
-0.04669593 0.1237075 0.5700001
-0.0452119 0.1237075 0.5700001
-0.04372787 0.1237075 0.5700001
-0.04224384 0.1237075 0.5700001
-0.04075981 0.1237075 0.5700001
-0.03927579 0.1237075 0.5700001
-0.03779176 0.1237075 0.5700001
-0.03630773 0.1237075 0.5700001
-0.0348237 0.1237075 0.5700001
-0.03333968 0.1237075 0.5700001
-0.03185565 0.1237075 0.5700001
-0.03037162 0.1237075 0.5700001
-0.02888759 0.1237075 0.5700001
-0.02740357 0.1237075 0.5700001
-0.02591954 0.1237075 0.5700001
-0.02443551 0.1237075 0.5700001
-0.02295148 0.1237075 0.5700001
-0.02146745 0.1237075 0.5700001
-0.05708412 0.1251915 0.5700001
-0.05560009 0.1251915 0.5700001
-0.05411606 0.1251915 0.5700001
-0.05263204 0.1251915 0.5700001
-0.05114801 0.1251915 0.5700001
-0.006627175 0.1251915 0.5700001
-0.005143147 0.1251915 0.5700001
-0.00365912 0.1251915 0.5700001
-0.002175092 0.1251915 0.5700001
-0.0006910638 0.1251915 0.5700001
-0.0615362 0.1266755 0.5700001
-0.06005218 0.1266755 0.5700001
-0.05856815 0.1266755 0.5700001
0.00376102 0.1266755 0.5700001
0.005245048 0.1266755 0.5700001
0.006729075 0.1266755 0.5700001
0.008213103 0.1266755 0.5700001
0.009697131 0.1266755 0.5700001
-0.06450426 0.1281596 0.5700001
-0.06302024 0.1281596 0.5700001
-0.0615362 0.1281596 0.5700001
0.01118116 0.1281596 0.5700001
0.01266519 0.1281596 0.5700001
0.01414922 0.1281596 0.5700001
0.01563324 0.1281596 0.5700001
0.01711727 0.1281596 0.5700001
0.0186013 0.1281596 0.5700001
0.02008533 0.1281596 0.5700001
0.02156935 0.1281596 0.5700001
0.02305338 0.1281596 0.5700001
-0.06598829 0.1296436 0.5700001
-0.06450426 0.1296436 0.5700001
0.02453741 0.1296436 0.5700001
0.02602144 0.1296436 0.5700001
0.02750546 0.1296436 0.5700001
-0.06747232 0.1311276 0.5700001
-0.06598829 0.1311276 0.5700001
0.02898949 0.1311276 0.5700001
-0.06747232 0.1326116 0.5700001
-0.06598829 0.1326116 0.5700001
0.02898949 0.1326116 0.5700001
-0.06895635 0.1340957 0.5700001
-0.06747232 0.1340957 0.5700001
-0.06747232 0.1355797 0.5700001
-0.06598829 0.1355797 0.5700001
0.03047352 0.1355797 0.5700001
-0.06747232 0.1370637 0.5700001
-0.06598829 0.1370637 0.5700001
0.03047352 0.1370637 0.5700001
-0.06598829 0.1385477 0.5700001
-0.06450426 0.1385477 0.5700001
-0.06450426 0.1400318 0.5700001
-0.06302024 0.1400318 0.5700001
-0.06450426 0.1415158 0.5700001
-0.06302024 0.1415158 0.5700001
-0.0615362 0.1415158 0.5700001
-0.0615362 0.1429998 0.5700001
-0.06005218 0.1429998 0.5700001
-0.05856815 0.1444839 0.5700001
-0.05708412 0.1444839 0.5700001
-0.05560009 0.1444839 0.5700001
-0.05411606 0.1444839 0.5700001
-0.05114801 0.1459679 0.5700001
-0.04966398 0.1459679 0.5700001
-0.04817995 0.1459679 0.5700001
-0.04669593 0.1459679 0.5700001
-0.0452119 0.1459679 0.5700001
-0.04075981 0.1474519 0.5700001
-0.03927579 0.1474519 0.5700001
-0.03779176 0.1474519 0.5700001
-0.03630773 0.1489359 0.5700001
-0.0348237 0.1489359 0.5700001
-0.03333968 0.15042 0.5700001
-0.03185565 0.15042 0.5700001
-0.04529122 0.1224379 0.571
-0.04380458 0.1224379 0.571
-0.04231795 0.1224379 0.571
-0.054211 0.1239245 0.571
-0.05272437 0.1239245 0.571
-0.05123774 0.1239245 0.571
-0.04975111 0.1239245 0.571
-0.02001848 0.1239245 0.571
-0.01853185 0.1239245 0.571
-0.01704522 0.1239245 0.571
-0.01555859 0.1239245 0.571
-0.01407196 0.1239245 0.571
-0.01258533 0.1239245 0.571
-0.0110987 0.1239245 0.571
-0.009612064 0.1239245 0.571
-0.008125433 0.1239245 0.571
-0.006638802 0.1239245 0.571
-0.005152171 0.1239245 0.571
-0.003665539 0.1239245 0.571
-0.002178908 0.1239245 0.571
-0.0006922762 0.1239245 0.571
-0.06015753 0.1254111 0.571
-0.0586709 0.1254111 0.571
0.0007943551 0.1254111 0.571
0.002280986 0.1254111 0.571
0.003767618 0.1254111 0.571
0.005254249 0.1254111 0.571
0.00674088 0.1254111 0.571
-0.06610405 0.1268978 0.571
-0.06461743 0.1268978 0.571
-0.0631308 0.1268978 0.571
0.01120077 0.1268978 0.571
0.01268741 0.1268978 0.571
0.01417404 0.1268978 0.571
0.01566067 0.1268978 0.571
0.0171473 0.1268978 0.571
0.01863393 0.1268978 0.571
0.02012056 0.1268978 0.571
0.02160719 0.1268978 0.571
0.02309383 0.1268978 0.571
-0.06759068 0.1283844 0.571
-0.06610405 0.1283844 0.571
0.02458046 0.1283844 0.571
0.02606709 0.1283844 0.571
0.02755372 0.1283844 0.571
-0.06907732 0.129871 0.571
-0.06759068 0.129871 0.571
0.02904035 0.129871 0.571
-0.07205058 0.1313577 0.571
-0.07056395 0.1313577 0.571
-0.06907732 0.1313577 0.571
-0.07205058 0.1328443 0.571
-0.07056395 0.1328443 0.571
-0.06907732 0.1328443 0.571
-0.07205058 0.1343309 0.571
-0.07056395 0.1343309 0.571
0.03052698 0.1343309 0.571
-0.07205058 0.1358175 0.571
-0.07056395 0.1358175 0.571
-0.06907732 0.1358175 0.571
-0.07056395 0.1373042 0.571
-0.06907732 0.1373042 0.571
-0.06907732 0.1387908 0.571
-0.06759068 0.1387908 0.571
-0.06759068 0.1402774 0.571
-0.06610405 0.1402774 0.571
-0.06610405 0.1417641 0.571
-0.06461743 0.1432507 0.571
-0.0631308 0.1432507 0.571
0.03201361 0.1432507 0.571
-0.0631308 0.1447373 0.571
-0.06164416 0.1447373 0.571
-0.06015753 0.1447373 0.571
0.03201361 0.1447373 0.571
-0.06015753 0.146224 0.571
-0.0586709 0.146224 0.571
-0.05718426 0.146224 0.571
-0.05569763 0.146224 0.571
-0.054211 0.146224 0.571
-0.05272437 0.146224 0.571
0.03201361 0.146224 0.571
-0.04677785 0.1477106 0.571
-0.04529122 0.1477106 0.571
-0.04380458 0.1477106 0.571
-0.04231795 0.1477106 0.571
-0.03934469 0.1491972 0.571
-0.03785806 0.1491972 0.571
-0.05281671 0.1226523 0.572
-0.05132747 0.1226523 0.572
-0.04983824 0.1226523 0.572
-0.048349 0.1226523 0.572
-0.04685977 0.1226523 0.572
-0.04090283 0.1226523 0.572
-0.0394136 0.1226523 0.572
-0.03792436 0.1226523 0.572
-0.03643513 0.1226523 0.572
-0.03494589 0.1226523 0.572
-0.03345665 0.1226523 0.572
-0.03196742 0.1226523 0.572
-0.03047819 0.1226523 0.572
-0.02898895 0.1226523 0.572
-0.02749972 0.1226523 0.572
-0.02601048 0.1226523 0.572
-0.02452125 0.1226523 0.572
-0.02303201 0.1226523 0.572
-0.02154278 0.1226523 0.572
-0.02005354 0.1226523 0.572
-0.01856431 0.1226523 0.572
-0.01707507 0.1226523 0.572
-0.01558584 0.1226523 0.572
-0.0140966 0.1226523 0.572
-0.01260737 0.1226523 0.572
-0.01111813 0.1226523 0.572
-0.009628898 0.1226523 0.572
-0.008139663 0.1226523 0.572
-0.006650428 0.1226523 0.572
-0.005161193 0.1226523 0.572
-0.003671958 0.1226523 0.572
-0.06026288 0.1241415 0.572
-0.05877365 0.1241415 0.572
-0.05728441 0.1241415 0.572
-0.05579518 0.1241415 0.572
0.0007957463 0.1241415 0.572
0.002284981 0.1241415 0.572
0.003774216 0.1241415 0.572
0.005263451 0.1241415 0.572
0.006752686 0.1241415 0.572
-0.06770906 0.1256308 0.572
-0.06621982 0.1256308 0.572
-0.06473058 0.1256308 0.572
-0.06324136 0.1256308 0.572
-0.06175212 0.1256308 0.572
0.008241921 0.1256308 0.572
0.009731156 0.1256308 0.572
0.01122039 0.1256308 0.572
0.01270963 0.1256308 0.572
0.01419886 0.1256308 0.572
0.0156881 0.1256308 0.572
0.01717733 0.1256308 0.572
0.01866656 0.1256308 0.572
0.0201558 0.1256308 0.572
0.02164503 0.1256308 0.572
0.02313427 0.1256308 0.572
-0.07068752 0.12712 0.572
-0.0691983 0.12712 0.572
-0.06770906 0.12712 0.572
0.0246235 0.12712 0.572
0.02611274 0.12712 0.572
0.02760197 0.12712 0.572
-0.07217675 0.1286092 0.572
-0.07068752 0.1286092 0.572
-0.0691983 0.1286092 0.572
0.02909121 0.1286092 0.572
-0.07515523 0.1300985 0.572
-0.07366599 0.1300985 0.572
-0.07217675 0.1300985 0.572
-0.07068752 0.1300985 0.572
-0.07515523 0.1315877 0.572
-0.07366599 0.1315877 0.572
-0.07515523 0.1330769 0.572
-0.07366599 0.1330769 0.572
0.03058044 0.1330769 0.572
-0.07515523 0.1345662 0.572
-0.07366599 0.1345662 0.572
-0.07366599 0.1360554 0.572
-0.07366599 0.1375446 0.572
-0.07217675 0.1375446 0.572
-0.07217675 0.1390339 0.572
-0.07068752 0.1390339 0.572
0.03206968 0.1390339 0.572
-0.0691983 0.1405231 0.572
0.03206968 0.1405231 0.572
-0.06770906 0.1420123 0.572
0.03206968 0.1420123 0.572
-0.06621982 0.1435016 0.572
-0.06473058 0.1449908 0.572
-0.06324136 0.1464801 0.572
-0.06175212 0.1464801 0.572
-0.05728441 0.1479693 0.572
-0.05579518 0.1479693 0.572
-0.05430594 0.1479693 0.572
-0.05281671 0.1479693 0.572
-0.05132747 0.1479693 0.572
-0.04983824 0.1479693 0.572
-0.048349 0.1479693 0.572
0.03206968 0.1479693 0.572
0.03206968 0.1494585 0.572
-0.04702361 0.1200923 0.574
-0.04552917 0.1200923 0.574
-0.04403473 0.1200923 0.574
-0.04254029 0.1200923 0.574
-0.04104584 0.1200923 0.574
-0.0395514 0.1200923 0.574
-0.03805696 0.1200923 0.574
-0.005179239 0.1200923 0.574
-0.003684797 0.1200923 0.574
-0.05748471 0.1215867 0.574
-0.05599026 0.1215867 0.574
-0.05449582 0.1215867 0.574
-0.05300138 0.1215867 0.574
-0.05150694 0.1215867 0.574
-0.04992537 0.1213749 0.573
-0.04843353 0.1213749 0.573
-0.04694169 0.1213749 0.573
-0.04544985 0.1213749 0.573
-0.04395801 0.1213749 0.573
-0.04246617 0.1213749 0.573
-0.04097433 0.1213749 0.573
-0.0394825 0.1213749 0.573
-0.03799066 0.1213749 0.573
-0.03649882 0.1213749 0.573
-0.03500698 0.1213749 0.573
-0.03351514 0.1213749 0.573
-0.03202331 0.1213749 0.573
-0.03053147 0.1213749 0.573
-0.02903963 0.1213749 0.573
-0.02759587 0.1215867 0.574
-0.02610143 0.1215867 0.574
-0.02460698 0.1215867 0.574
-0.02311254 0.1215867 0.574
-0.0216181 0.1215867 0.574
-0.02012366 0.1215867 0.574
-0.01862922 0.1215867 0.574
-0.01713477 0.1215867 0.574
-0.01564033 0.1215867 0.574
-0.01414589 0.1215867 0.574
-0.01265145 0.1215867 0.574
-0.01115701 0.1215867 0.574
-0.009662564 0.1215867 0.574
-0.008153893 0.1213749 0.573
-0.006662054 0.1213749 0.573
-0.005170216 0.1213749 0.573
-0.003678378 0.1213749 0.573
-0.002190355 0.1215867 0.574
-0.0006959133 0.1215867 0.574
0.0007985285 0.1215867 0.574
0.00229297 0.1215867 0.574
0.003787412 0.1215867 0.574
0.005281854 0.1215867 0.574
0.006776296 0.1215867 0.574
-0.0588764 0.1228667 0.573
-0.05738456 0.1228667 0.573
-0.05589272 0.1228667 0.573
-0.05440088 0.1228667 0.573
-0.002186539 0.1228667 0.573
-0.000694701 0.1228667 0.573
0.0007971374 0.1228667 0.573
0.002288976 0.1228667 0.573
0.003780814 0.1228667 0.573
0.005272652 0.1228667 0.573
-0.06944024 0.1230811 0.574
-0.0679458 0.1230811 0.574
-0.06645136 0.1230811 0.574
-0.06495691 0.1230811 0.574
-0.06346247 0.1230811 0.574
-0.06196803 0.1230811 0.574
-0.06047359 0.1230811 0.574
0.006776296 0.1230811 0.574
0.008270739 0.1230811 0.574
0.00976518 0.1230811 0.574
0.01125962 0.1230811 0.574
0.01275406 0.1230811 0.574
0.01424851 0.1230811 0.574
0.01574295 0.1230811 0.574
0.01723739 0.1230811 0.574
0.01873183 0.1230811 0.574
0.02022627 0.1230811 0.574
0.02172071 0.1230811 0.574
0.02321516 0.1230811 0.574
0.0247096 0.1230811 0.574
0.02620404 0.1230811 0.574
-0.07691246 0.1245756 0.574
-0.07541801 0.1245756 0.574
-0.07392357 0.1245756 0.574
-0.07242912 0.1245756 0.574
-0.07093468 0.1245756 0.574
-0.06944024 0.1245756 0.574
-0.06782743 0.1243586 0.573
-0.06633559 0.1243586 0.573
-0.06484375 0.1243586 0.573
-0.06335191 0.1243586 0.573
-0.06186007 0.1243586 0.573
0.008256329 0.1243586 0.573
0.009748167 0.1243586 0.573
0.01124001 0.1243586 0.573
0.01273184 0.1243586 0.573
0.01422368 0.1243586 0.573
0.01571552 0.1243586 0.573
0.01720736 0.1243586 0.573
0.0186992 0.1243586 0.573
0.02019104 0.1243586 0.573
0.02168287 0.1243586 0.573
0.02317471 0.1243586 0.573
0.02466655 0.1243586 0.573
0.02615839 0.1243586 0.573
0.02769848 0.1245756 0.574
0.02919292 0.1245756 0.574
-0.07379478 0.1258504 0.573
-0.07230294 0.1258504 0.573
-0.0708111 0.1258504 0.573
-0.06931927 0.1258504 0.573
0.02466655 0.1258504 0.573
0.02615839 0.1258504 0.573
0.02765023 0.1258504 0.573
-0.07990133 0.12607 0.574
-0.07840689 0.12607 0.574
-0.07691246 0.12607 0.574
-0.07541801 0.12607 0.574
0.02919292 0.12607 0.574
-0.08139578 0.1275645 0.574
-0.07990133 0.1275645 0.574
-0.07840689 0.1275645 0.574
-0.07677846 0.1273422 0.573
-0.07528662 0.1273422 0.573
-0.07379478 0.1273422 0.573
-0.07230294 0.1273422 0.573
0.02914207 0.1273422 0.573
-0.0782703 0.1288341 0.573
-0.07677846 0.1288341 0.573
-0.07528662 0.1288341 0.573
-0.07379478 0.1288341 0.573
-0.08289022 0.1290589 0.574
-0.08139578 0.1290589 0.574
-0.07990133 0.1290589 0.574
0.03068737 0.1290589 0.574
-0.08289022 0.1305533 0.574
-0.08139578 0.1305533 0.574
-0.07976213 0.1303259 0.573
-0.0782703 0.1303259 0.573
-0.07677846 0.1303259 0.573
0.03063391 0.1303259 0.573
-0.07976213 0.1318177 0.573
-0.0782703 0.1318177 0.573
-0.07677846 0.1318177 0.573
0.03063391 0.1318177 0.573
-0.08289022 0.1320478 0.574
-0.08139578 0.1320478 0.574
-0.08289022 0.1335422 0.574
-0.08139578 0.1335422 0.574
-0.07976213 0.1333096 0.573
-0.0782703 0.1333096 0.573
-0.07677846 0.1333096 0.573
-0.0782703 0.1348014 0.573
-0.07677846 0.1348014 0.573
-0.08139578 0.1350367 0.574
-0.07990133 0.1350367 0.574
0.03218181 0.1350367 0.574
-0.07990133 0.1365311 0.574
-0.07840689 0.1365311 0.574
-0.07677846 0.1362933 0.573
-0.07528662 0.1362933 0.573
0.03212574 0.1362933 0.573
-0.07528662 0.1377851 0.573
0.03212574 0.1377851 0.573
-0.07840689 0.1380256 0.574
-0.07691246 0.1380256 0.574
-0.07541801 0.13952 0.574
-0.07379478 0.1392769 0.573
-0.07230294 0.1407688 0.573
-0.0708111 0.1407688 0.573
-0.07392357 0.1410144 0.574
-0.07392357 0.1425089 0.574
-0.07242912 0.1425089 0.574
-0.0708111 0.1422606 0.573
-0.06931927 0.1422606 0.573
-0.06931927 0.1437525 0.573
-0.06782743 0.1437525 0.573
-0.07093468 0.1440033 0.574
-0.06944024 0.1454978 0.574
-0.06782743 0.1452443 0.573
-0.06633559 0.1452443 0.573
-0.06633559 0.1467361 0.573
-0.06484375 0.1467361 0.573
-0.05309372 0.1203015 0.575
-0.05159668 0.1203015 0.575
-0.05009963 0.1203015 0.575
-0.04860258 0.1203015 0.575
-0.03662622 0.1203015 0.575
-0.03512917 0.1203015 0.575
-0.03363213 0.1203015 0.575
-0.03213508 0.1203015 0.575
-0.03063804 0.1203015 0.575
-0.02914099 0.1203015 0.575
-0.02764395 0.1203015 0.575
-0.0261469 0.1203015 0.575
-0.02464986 0.1203015 0.575
-0.02315281 0.1203015 0.575
-0.02165576 0.1203015 0.575
-0.02015872 0.1203015 0.575
-0.01417054 0.1203015 0.575
-0.01267349 0.1203015 0.575
-0.01117645 0.1203015 0.575
-0.009679398 0.1203015 0.575
-0.008182354 0.1203015 0.575
-0.006685308 0.1203015 0.575
-0.002194171 0.1203015 0.575
-0.0006971258 0.1203015 0.575
0.0007999198 0.1203015 0.575
0.002296965 0.1203015 0.575
0.003794011 0.1203015 0.575
-0.06507009 0.1217985 0.575
-0.06357304 0.1217985 0.575
-0.06207599 0.1217985 0.575
-0.06057895 0.1217985 0.575
-0.0590819 0.1217985 0.575
0.008285148 0.1217985 0.575
0.009782193 0.1217985 0.575
0.01127924 0.1217985 0.575
0.01277628 0.1217985 0.575
0.01427333 0.1217985 0.575
0.02175856 0.1217985 0.575
0.0232556 0.1217985 0.575
-0.0755494 0.1232956 0.575
-0.07405236 0.1232956 0.575
-0.07255531 0.1232956 0.575
-0.07105827 0.1232956 0.575
0.02774674 0.1232956 0.575
-0.08004054 0.1247926 0.575
-0.0785435 0.1247926 0.575
-0.08303463 0.1262897 0.575
-0.08153759 0.1262897 0.575
-0.08303463 0.1277867 0.575
0.03074083 0.1277867 0.575
-0.08453168 0.1292838 0.575
-0.08453168 0.1307808 0.575
0.03223788 0.1337749 0.575
-0.08303463 0.135272 0.575
-0.08153759 0.136769 0.575
-0.07704645 0.1397631 0.575
-0.0755494 0.1412601 0.575
0.03373492 0.1412601 0.575
0.03373492 0.1427572 0.575
-0.07255531 0.1442542 0.575
0.03373492 0.1442542 0.575
0.03373492 0.1457513 0.575
0.03373492 0.1472483 0.575
-0.05168641 0.1190111 0.576
-0.05018676 0.1190111 0.576
-0.04868711 0.1190111 0.576
-0.04718746 0.1190111 0.576
-0.04568781 0.1190111 0.576
-0.04418816 0.1190111 0.576
-0.04268852 0.1190111 0.576
-0.04118886 0.1190111 0.576
-0.03968922 0.1190111 0.576
-0.03818956 0.1190111 0.576
-0.008196584 0.1190111 0.576
-0.006696934 0.1190111 0.576
-0.005197286 0.1190111 0.576
-0.003697637 0.1190111 0.576
-0.002197987 0.1190111 0.576
-0.0006983381 0.1190111 0.576
0.0008013109 0.1190111 0.576
0.00230096 0.1190111 0.576
0.003800609 0.1190111 0.576
-0.0606843 0.1205107 0.576
-0.05918465 0.1205107 0.576
-0.057685 0.1205107 0.576
-0.05618536 0.1205107 0.576
-0.0546857 0.1205107 0.576
-0.01869413 0.1205107 0.576
-0.01719448 0.1205107 0.576
-0.01569483 0.1205107 0.576
0.005300258 0.1205107 0.576
0.006799907 0.1205107 0.576
0.008299557 0.1205107 0.576
0.009799206 0.1205107 0.576
0.01129885 0.1205107 0.576
0.0127985 0.1205107 0.576
0.01429815 0.1205107 0.576
0.0157978 0.1205107 0.576
0.01729745 0.1205107 0.576
-0.07568079 0.1220104 0.576
-0.07418114 0.1220104 0.576
-0.07268149 0.1220104 0.576
-0.07118184 0.1220104 0.576
-0.0696822 0.1220104 0.576
-0.06818255 0.1220104 0.576
-0.0666829 0.1220104 0.576
0.0157978 0.1220104 0.576
0.01729745 0.1220104 0.576
0.0187971 0.1220104 0.576
0.02029675 0.1220104 0.576
0.0247957 0.1220104 0.576
0.02629535 0.1220104 0.576
-0.08167939 0.12351 0.576
-0.08017974 0.12351 0.576
-0.0786801 0.12351 0.576
-0.07718045 0.12351 0.576
0.02929464 0.12351 0.576
-0.08317904 0.1250097 0.576
-0.08167939 0.1250097 0.576
0.03079429 0.1250097 0.576
-0.08467869 0.1265093 0.576
0.03079429 0.1265093 0.576
-0.08617833 0.1280089 0.576
-0.08467869 0.1280089 0.576
-0.08617833 0.1295086 0.576
-0.08617833 0.1310083 0.576
0.03229394 0.1310083 0.576
-0.08617833 0.1325079 0.576
-0.08467869 0.1325079 0.576
0.03229394 0.1325079 0.576
-0.08467869 0.1340075 0.576
-0.08467869 0.1355072 0.576
-0.08317904 0.1370068 0.576
-0.08017974 0.1385065 0.576
0.03379359 0.1385065 0.576
-0.0786801 0.1400061 0.576
0.03379359 0.1400061 0.576
-0.07718045 0.1415058 0.576
-0.07568079 0.1430054 0.576
-0.003704056 0.1177154 0.577
-0.002201803 0.1177154 0.577
-0.0006995506 0.1177154 0.577
0.008313965 0.1177154 0.577
-0.05778515 0.1192177 0.577
-0.0562829 0.1192177 0.577
-0.05478064 0.1192177 0.577
-0.05327839 0.1192177 0.577
-0.03675361 0.1192177 0.577
-0.03525136 0.1192177 0.577
-0.03374911 0.1192177 0.577
-0.03224685 0.1192177 0.577
-0.0307446 0.1192177 0.577
-0.02924235 0.1192177 0.577
-0.0277401 0.1192177 0.577
-0.02623785 0.1192177 0.577
-0.02473559 0.1192177 0.577
-0.02323334 0.1192177 0.577
-0.02173109 0.1192177 0.577
-0.02022883 0.1192177 0.577
-0.01872658 0.1192177 0.577
-0.01722433 0.1192177 0.577
-0.01572208 0.1192177 0.577
-0.01421982 0.1192177 0.577
-0.01271757 0.1192177 0.577
-0.01121532 0.1192177 0.577
-0.009713066 0.1192177 0.577
0.00530946 0.1192177 0.577
0.006811712 0.1192177 0.577
0.008313965 0.1192177 0.577
0.009816218 0.1192177 0.577
0.01131847 0.1192177 0.577
0.01282072 0.1192177 0.577
0.01432298 0.1192177 0.577
-0.07430993 0.1207199 0.577
-0.07280767 0.1207199 0.577
-0.07130542 0.1207199 0.577
-0.06980317 0.1207199 0.577
-0.06830092 0.1207199 0.577
-0.06679866 0.1207199 0.577
-0.06529641 0.1207199 0.577
-0.06379417 0.1207199 0.577
-0.06229191 0.1207199 0.577
0.01882973 0.1207199 0.577
0.02033199 0.1207199 0.577
0.02183424 0.1207199 0.577
0.02333649 0.1207199 0.577
-0.08182119 0.1222222 0.577
-0.08031894 0.1222222 0.577
-0.07881669 0.1222222 0.577
-0.07731444 0.1222222 0.577
0.02784325 0.1222222 0.577
-0.08332345 0.1237244 0.577
-0.08632795 0.1252267 0.577
-0.0848257 0.1252267 0.577
-0.08632795 0.1267289 0.577
0.03235001 0.1282312 0.577
-0.0878302 0.1297334 0.577
0.03235001 0.1297334 0.577
-0.0878302 0.1312357 0.577
-0.08632795 0.1342402 0.577
-0.08632795 0.1357425 0.577
0.03385226 0.1357425 0.577
-0.0848257 0.1372447 0.577
0.03385226 0.1372447 0.577
-0.08332345 0.1387469 0.577
-0.08182119 0.1387469 0.577
-0.08182119 0.1402492 0.577
-0.08031894 0.1402492 0.577
-0.07881669 0.1417515 0.577
-0.07731444 0.1432537 0.577
-0.05638044 0.1179194 0.578
-0.05487558 0.1179194 0.578
-0.05337073 0.1179194 0.578
-0.05186587 0.1179194 0.578
-0.05036102 0.1179194 0.578
-0.04885616 0.1179194 0.578
-0.0473513 0.1179194 0.578
-0.04584645 0.1179194 0.578
-0.04434159 0.1179194 0.578
-0.04283674 0.1179194 0.578
-0.04133188 0.1179194 0.578
-0.03982702 0.1179194 0.578
-0.03832217 0.1179194 0.578
-0.03681731 0.1179194 0.578
-0.03531246 0.1179194 0.578
-0.0338076 0.1179194 0.578
-0.03230274 0.1179194 0.578
-0.03079789 0.1179194 0.578
-0.02929303 0.1179194 0.578
-0.02778817 0.1179194 0.578
-0.02628332 0.1179194 0.578
-0.02477846 0.1179194 0.578
-0.02327361 0.1179194 0.578
-0.02176875 0.1179194 0.578
-0.02026389 0.1179194 0.578
-0.01875904 0.1179194 0.578
-0.01725418 0.1179194 0.578
-0.01574932 0.1179194 0.578
-0.01424447 0.1179194 0.578
-0.01273961 0.1179194 0.578
-0.01123476 0.1179194 0.578
-0.009729899 0.1179194 0.578
-0.008225044 0.1179194 0.578
-0.006720188 0.1179194 0.578
-0.005215331 0.1179194 0.578
0.0008040932 0.1179194 0.578
0.002308949 0.1179194 0.578
0.003813806 0.1179194 0.578
0.005318662 0.1179194 0.578
0.006823518 0.1179194 0.578
0.00983323 0.1179194 0.578
0.01133809 0.1179194 0.578
0.01284294 0.1179194 0.578
0.0143478 0.1179194 0.578
-0.07594357 0.1194243 0.578
-0.07443871 0.1194243 0.578
-0.07293385 0.1194243 0.578
-0.071429 0.1194243 0.578
-0.06992415 0.1194243 0.578
-0.06841929 0.1194243 0.578
-0.06691443 0.1194243 0.578
-0.06540958 0.1194243 0.578
-0.06390473 0.1194243 0.578
-0.06239986 0.1194243 0.578
-0.06089501 0.1194243 0.578
-0.05939015 0.1194243 0.578
0.01585265 0.1194243 0.578
0.01735751 0.1194243 0.578
0.01886237 0.1194243 0.578
-0.081963 0.1209291 0.578
-0.08045813 0.1209291 0.578
-0.07895329 0.1209291 0.578
-0.07744843 0.1209291 0.578
-0.07594357 0.1209291 0.578
0.02488179 0.1209291 0.578
0.02638665 0.1209291 0.578
-0.08346786 0.122434 0.578
0.02939636 0.122434 0.578
-0.08647756 0.1239389 0.578
-0.08497271 0.1239389 0.578
0.03090122 0.1239389 0.578
-0.08798242 0.1269486 0.578
0.03240607 0.1269486 0.578
-0.08798242 0.1284534 0.578
-0.08798242 0.132968 0.578
0.03391093 0.132968 0.578
-0.08798242 0.1344728 0.578
0.03391093 0.1344728 0.578
-0.08798242 0.1359777 0.578
-0.08647756 0.1374826 0.578
-0.08497271 0.1389874 0.578
-0.08346786 0.1404923 0.578
-0.08045813 0.1419971 0.578
-0.05497053 0.116616 0.5790001
-0.05346307 0.116616 0.5790001
-0.05195561 0.116616 0.5790001
-0.05044815 0.116616 0.5790001
-0.04894069 0.116616 0.5790001
-0.04743323 0.116616 0.5790001
-0.04592577 0.116616 0.5790001
-0.04441831 0.116616 0.5790001
-0.04291085 0.116616 0.5790001
-0.04140339 0.116616 0.5790001
-0.03989593 0.116616 0.5790001
-0.03838847 0.116616 0.5790001
-0.03688101 0.116616 0.5790001
-0.03537355 0.116616 0.5790001
-0.03386609 0.116616 0.5790001
-0.03235863 0.116616 0.5790001
-0.03085117 0.116616 0.5790001
-0.02934371 0.116616 0.5790001
-0.02783625 0.116616 0.5790001
-0.02632879 0.116616 0.5790001
-0.02482133 0.116616 0.5790001
-0.02331387 0.116616 0.5790001
-0.02180641 0.116616 0.5790001
-0.02029895 0.116616 0.5790001
-0.01879149 0.116616 0.5790001
-0.01728403 0.116616 0.5790001
-0.01426911 0.116616 0.5790001
-0.01276165 0.116616 0.5790001
-0.01125419 0.116616 0.5790001
-0.009746734 0.116616 0.5790001
-0.008239275 0.116616 0.5790001
-0.006731815 0.116616 0.5790001
-0.005224355 0.116616 0.5790001
-0.003716895 0.116616 0.5790001
-0.002209435 0.116616 0.5790001
-0.0007019754 0.116616 0.5790001
0.0008054845 0.116616 0.5790001
0.002312944 0.116616 0.5790001
-0.07306004 0.1181234 0.5790001
-0.07155259 0.1181234 0.5790001
-0.07004513 0.1181234 0.5790001
-0.06853767 0.1181234 0.5790001
-0.06703021 0.1181234 0.5790001
-0.06552275 0.1181234 0.5790001
-0.06401529 0.1181234 0.5790001
-0.06250783 0.1181234 0.5790001
-0.06100037 0.1181234 0.5790001
-0.05949291 0.1181234 0.5790001
-0.05798545 0.1181234 0.5790001
0.01588008 0.1181234 0.5790001
-0.0821048 0.1196309 0.5790001
-0.08059734 0.1196309 0.5790001
-0.07908989 0.1196309 0.5790001
-0.07758243 0.1196309 0.5790001
0.02040246 0.1196309 0.5790001
0.02190992 0.1196309 0.5790001
-0.08361227 0.1211384 0.5790001
0.02793976 0.1211384 0.5790001
-0.08662719 0.1226458 0.5790001
-0.08511973 0.1226458 0.5790001
0.03095468 0.1226458 0.5790001
-0.08813465 0.1256607 0.5790001
0.03246214 0.1256607 0.5790001
-0.08964211 0.1271682 0.5790001
-0.08964211 0.1286757 0.5790001
-0.08964211 0.1301831 0.5790001
0.0339696 0.1301831 0.5790001
-0.08964211 0.1316906 0.5790001
0.0339696 0.1316906 0.5790001
-0.08964211 0.1331981 0.5790001
-0.08964211 0.1347055 0.5790001
-0.08813465 0.1377204 0.5790001
-0.08662719 0.1392279 0.5790001
0.03547706 0.1392279 0.5790001
-0.08511973 0.1407353 0.5790001
0.03547706 0.1407353 0.5790001
0.03547706 0.1422428 0.5790001
0.03547706 0.1437503 0.5790001
-0.05204534 0.1153073 0.58
-0.05053528 0.1153073 0.58
-0.04902522 0.1153073 0.58
-0.04751515 0.1153073 0.58
-0.04600509 0.1153073 0.58
-0.04449502 0.1153073 0.58
-0.04298496 0.1153073 0.58
-0.0414749 0.1153073 0.58
-0.03996484 0.1153073 0.58
-0.03845477 0.1153073 0.58
-0.03694471 0.1153073 0.58
-0.03543464 0.1153073 0.58
-0.03392458 0.1153073 0.58
-0.03241452 0.1153073 0.58
-0.03090446 0.1153073 0.58
-0.02939439 0.1153073 0.58
-0.02788433 0.1153073 0.58
-0.02637427 0.1153073 0.58
-0.0248642 0.1153073 0.58
-0.02335414 0.1153073 0.58
-0.02184407 0.1153073 0.58
-0.02033401 0.1153073 0.58
-0.01882395 0.1153073 0.58
-0.009763568 0.1153073 0.58
-0.008253505 0.1153073 0.58
-0.06412585 0.1168174 0.58
-0.06261578 0.1168174 0.58
-0.06110572 0.1168174 0.58
-0.05959566 0.1168174 0.58
-0.05808559 0.1168174 0.58
-0.05657553 0.1168174 0.58
-0.01580382 0.1168174 0.58
0.003827002 0.1168174 0.58
-0.08224661 0.1183275 0.58
-0.08073654 0.1183275 0.58
-0.07922649 0.1183275 0.58
-0.07771642 0.1183275 0.58
-0.07620636 0.1183275 0.58
-0.07469629 0.1183275 0.58
0.01741757 0.1183275 0.58
-0.08375667 0.1198375 0.58
0.02345783 0.1198375 0.58
0.02496789 0.1198375 0.58
-0.08526674 0.1213476 0.58
0.02949808 0.1213476 0.58
-0.08828686 0.1243677 0.58
0.03251821 0.1243677 0.58
-0.08979692 0.1258778 0.58
0.03402827 0.1273878 0.58
0.03402827 0.1288979 0.58
-0.09130699 0.130408 0.58
-0.08979692 0.1364482 0.58
0.03553833 0.1364482 0.58
0.03553833 0.1379583 0.58
-0.08828686 0.1394683 0.58
-0.0279324 0.1124808 0.581
-0.04910974 0.1139935 0.581
-0.04608441 0.1139935 0.581
-0.04457174 0.1139935 0.581
-0.04305907 0.1139935 0.581
-0.0415464 0.1139935 0.581
-0.04003374 0.1139935 0.581
-0.03852107 0.1139935 0.581
-0.0370084 0.1139935 0.581
-0.03549574 0.1139935 0.581
-0.03398307 0.1139935 0.581
-0.03247041 0.1139935 0.581
-0.03095774 0.1139935 0.581
-0.02944507 0.1139935 0.581
-0.0279324 0.1139935 0.581
-0.02641974 0.1139935 0.581
-0.02490707 0.1139935 0.581
-0.0233944 0.1139935 0.581
-0.02188173 0.1139935 0.581
-0.02036907 0.1139935 0.581
-0.0188564 0.1139935 0.581
-0.01734374 0.1139935 0.581
-0.06121107 0.1155061 0.581
-0.05969841 0.1155061 0.581
-0.05818574 0.1155061 0.581
-0.05667308 0.1155061 0.581
-0.05516041 0.1155061 0.581
-0.05364774 0.1155061 0.581
-0.01734374 0.1155061 0.581
-0.01583107 0.1155061 0.581
-0.0143184 0.1155061 0.581
-0.01280574 0.1155061 0.581
-0.01129307 0.1155061 0.581
-0.006755068 0.1155061 0.581
-0.005242401 0.1155061 0.581
-0.003729734 0.1155061 0.581
-0.002217067 0.1155061 0.581
-0.0007044001 0.1155061 0.581
0.0008082667 0.1155061 0.581
-0.07936309 0.1170188 0.581
-0.07785042 0.1170188 0.581
-0.07633775 0.1170188 0.581
-0.07482508 0.1170188 0.581
-0.07331241 0.1170188 0.581
-0.07179974 0.1170188 0.581
-0.07028708 0.1170188 0.581
-0.06877441 0.1170188 0.581
-0.06726174 0.1170188 0.581
-0.06574908 0.1170188 0.581
0.005346267 0.1170188 0.581
0.006858934 0.1170188 0.581
0.008371601 0.1170188 0.581
0.009884268 0.1170188 0.581
-0.08390108 0.1185315 0.581
0.01896027 0.1185315 0.581
-0.08541375 0.1200441 0.581
0.0265236 0.1200441 0.581
-0.08692641 0.1215568 0.581
-0.08843908 0.1230695 0.581
-0.08995175 0.1245821 0.581
0.03408694 0.1260948 0.581
-0.09146442 0.1276075 0.581
-0.09146442 0.1291201 0.581
-0.09146442 0.1321455 0.581
0.0355996 0.1321455 0.581
-0.09146442 0.1336581 0.581
0.0355996 0.1336581 0.581
-0.09146442 0.1351708 0.581
0.0355996 0.1351708 0.581
-0.08995175 0.1381961 0.581
-0.03561793 0.1113501 0.583
-0.03410005 0.1113501 0.583
-0.03258218 0.1113501 0.583
-0.0310643 0.1113501 0.583
-0.02949575 0.1111591 0.582
-0.02802856 0.1113501 0.583
-0.02651068 0.1113501 0.583
-0.05231454 0.112868 0.583
-0.05079667 0.112868 0.583
-0.04927879 0.112868 0.583
-0.04776092 0.112868 0.583
-0.04624304 0.112868 0.583
-0.04472517 0.112868 0.583
-0.0432073 0.112868 0.583
-0.04168942 0.112868 0.583
-0.04017155 0.112868 0.583
-0.03865367 0.112868 0.583
-0.0371358 0.112868 0.583
-0.03561793 0.112868 0.583
-0.03410005 0.112868 0.583
-0.03252629 0.1126744 0.582
-0.03101102 0.1126744 0.582
-0.02949575 0.1126744 0.582
-0.02646521 0.1126744 0.582
-0.02494994 0.1126744 0.582
-0.02347494 0.112868 0.583
-0.06293966 0.1143859 0.583
-0.06142178 0.1143859 0.583
-0.05990391 0.1143859 0.583
-0.05838603 0.1143859 0.583
-0.05686816 0.1143859 0.583
-0.05525535 0.1141897 0.582
-0.05374008 0.1141897 0.582
-0.0522248 0.1141897 0.582
-0.05070954 0.1141897 0.582
-0.047679 0.1141897 0.582
-0.01585832 0.1141897 0.582
-0.01436769 0.1143859 0.583
-0.01284982 0.1143859 0.583
-0.01133194 0.1143859 0.583
-0.009814068 0.1143859 0.583
-0.008296194 0.1143859 0.583
-0.00677832 0.1143859 0.583
-0.08115414 0.1159037 0.583
-0.07963628 0.1159037 0.583
-0.0781184 0.1159037 0.583
-0.07660052 0.1159037 0.583
-0.07508264 0.1159037 0.583
-0.07356477 0.1159037 0.583
-0.0720469 0.1159037 0.583
-0.07052903 0.1159037 0.583
-0.06901115 0.1159037 0.583
-0.06749328 0.1159037 0.583
-0.06586224 0.1157049 0.582
-0.06434697 0.1157049 0.582
-0.0628317 0.1157049 0.582
0.002328923 0.1159037 0.583
-0.08418989 0.1174216 0.583
-0.08253022 0.1172202 0.582
-0.08101494 0.1172202 0.582
0.01141655 0.1172202 0.582
0.01295404 0.1174216 0.583
0.01447191 0.1174216 0.583
-0.08570777 0.1189395 0.583
0.02050817 0.1187355 0.582
0.02206128 0.1189395 0.583
-0.08722564 0.1204574 0.583
0.02813278 0.1204574 0.583
-0.08874351 0.1219752 0.583
0.03116853 0.1219752 0.583
-0.09026138 0.1234931 0.583
0.03263034 0.1232813 0.582
0.03420427 0.125011 0.583
-0.09162184 0.1263118 0.582
-0.09329713 0.1280467 0.583
0.03572215 0.1280467 0.583
-0.09329713 0.1295646 0.583
0.03572215 0.1295646 0.583
0.03566088 0.1308576 0.582
-0.09329713 0.1310825 0.583
-0.09329713 0.1326004 0.583
-0.09329713 0.1341182 0.583
-0.09162184 0.1369187 0.582
0.03724002 0.1386718 0.583
0.03724002 0.1401897 0.583
-0.0508838 0.1115411 0.5840001
-0.04936332 0.1115411 0.5840001
-0.04784285 0.1115411 0.5840001
-0.04632236 0.1115411 0.5840001
-0.04480189 0.1115411 0.5840001
-0.04328141 0.1115411 0.5840001
-0.04176093 0.1115411 0.5840001
-0.04024046 0.1115411 0.5840001
-0.03871997 0.1115411 0.5840001
-0.0371995 0.1115411 0.5840001
-0.02503568 0.1115411 0.5840001
-0.06152714 0.1130616 0.5840001
-0.06000666 0.1130616 0.5840001
-0.05848619 0.1130616 0.5840001
-0.05696571 0.1130616 0.5840001
-0.05544523 0.1130616 0.5840001
-0.05392475 0.1130616 0.5840001
-0.02199472 0.1130616 0.5840001
-0.02047425 0.1130616 0.5840001
-0.07977287 0.1145821 0.5840001
-0.0782524 0.1145821 0.5840001
-0.07673192 0.1145821 0.5840001
-0.07521144 0.1145821 0.5840001
-0.07369096 0.1145821 0.5840001
-0.07217048 0.1145821 0.5840001
-0.07065001 0.1145821 0.5840001
-0.06912953 0.1145821 0.5840001
-0.06760906 0.1145821 0.5840001
-0.06608857 0.1145821 0.5840001
-0.06456809 0.1145821 0.5840001
-0.00526947 0.1145821 0.5840001
-0.003748993 0.1145821 0.5840001
-0.002228515 0.1145821 0.5840001
-0.08281383 0.1161026 0.5840001
0.003853396 0.1161026 0.5840001
0.01601722 0.117623 0.5840001
-0.08737526 0.1191435 0.5840001
0.0236196 0.1191435 0.5840001
-0.09041622 0.1221845 0.5840001
-0.09193669 0.1252254 0.5840001
-0.09345717 0.1267459 0.5840001
-0.09345717 0.1358688 0.5840001
0.0373039 0.1358688 0.5840001
0.0373039 0.1373892 0.5840001
-0.06010941 0.1117321 0.585
-0.05858633 0.1117321 0.585
-0.05706325 0.1117321 0.585
-0.05554017 0.1117321 0.585
-0.05401709 0.1117321 0.585
-0.05249401 0.1117321 0.585
-0.02355547 0.1117321 0.585
-0.07534023 0.1132552 0.585
-0.07381714 0.1132552 0.585
-0.07229406 0.1132552 0.585
-0.07077098 0.1132552 0.585
-0.0692479 0.1132552 0.585
-0.06772482 0.1132552 0.585
-0.06620174 0.1132552 0.585
-0.06467866 0.1132552 0.585
-0.06315558 0.1132552 0.585
-0.01898622 0.1132552 0.585
-0.01746314 0.1132552 0.585
-0.08143254 0.1147783 0.585
-0.0007092497 0.1147783 0.585
-0.08447871 0.1163014 0.585
0.005383075 0.1163014 0.585
0.006906156 0.1163014 0.585
0.008429238 0.1163014 0.585
-0.0860018 0.1178244 0.585
0.01756772 0.1178244 0.585
0.01909081 0.1178244 0.585
0.02518313 0.1193475 0.585
-0.08904795 0.1208706 0.585
0.02975237 0.1208706 0.585
0.03279854 0.1223937 0.585
-0.09209412 0.1239168 0.585
0.03432162 0.1239168 0.585
0.0358447 0.1269629 0.585
-0.09514028 0.1300091 0.585
-0.09514028 0.1315322 0.585
0.03736778 0.1315322 0.585
-0.09514028 0.1330553 0.585
0.03736778 0.1330553 0.585
-0.09514028 0.1345783 0.585
0.03736778 0.1345783 0.585
-0.05716079 0.1103974 0.586
-0.05563511 0.1103974 0.586
-0.05410942 0.1103974 0.586
-0.05258374 0.1103974 0.586
-0.05105806 0.1103974 0.586
-0.04953237 0.1103974 0.586
-0.04800669 0.1103974 0.586
-0.046481 0.1103974 0.586
-0.04495531 0.1103974 0.586
-0.04342963 0.1103974 0.586
-0.04190395 0.1103974 0.586
-0.04037827 0.1103974 0.586
-0.03885258 0.1103974 0.586
-0.03732689 0.1103974 0.586
-0.03580121 0.1103974 0.586
-0.03427552 0.1103974 0.586
-0.03274984 0.1103974 0.586
-0.03122416 0.1103974 0.586
-0.02969847 0.1103974 0.586
-0.06936627 0.1119231 0.586
-0.06784059 0.1119231 0.586
-0.0663149 0.1119231 0.586
-0.06478922 0.1119231 0.586
-0.06326354 0.1119231 0.586
-0.06173785 0.1119231 0.586
-0.02207005 0.1119231 0.586
-0.08157174 0.1134488 0.586
-0.08004607 0.1134488 0.586
-0.07852038 0.1134488 0.586
-0.07699469 0.1134488 0.586
-0.01596731 0.1134488 0.586
-0.01444162 0.1134488 0.586
-0.08309744 0.1149745 0.586
0.0008152226 0.1149745 0.586
-0.08614881 0.1165002 0.586
0.00996933 0.1165002 0.586
-0.08767448 0.1180259 0.586
-0.08920017 0.1195515 0.586
0.02675186 0.1195515 0.586
-0.09072585 0.1210772 0.586
-0.09225155 0.1226029 0.586
-0.09377722 0.1256543 0.586
0.03590597 0.1256543 0.586
-0.09530291 0.1287056 0.586
0.03743165 0.1287056 0.586
0.03743165 0.1302313 0.586
-0.05888677 0.1092433 0.588
-0.05735588 0.1092433 0.588
-0.05582499 0.1092433 0.588
-0.0542941 0.1092433 0.588
-0.05276321 0.1092433 0.588
-0.05123232 0.1092433 0.588
-0.04970142 0.1092433 0.588
-0.04817053 0.1092433 0.588
-0.04663964 0.1092433 0.588
-0.07572658 0.1107742 0.588
-0.07419568 0.1107742 0.588
-0.0726648 0.1107742 0.588
-0.0711339 0.1107742 0.588
-0.06960301 0.1107742 0.588
-0.06807213 0.1107742 0.588
-0.06654123 0.1107742 0.588
-0.06501034 0.1107742 0.588
-0.06347945 0.1107742 0.588
-0.0618432 0.1105858 0.587
-0.06031491 0.1105858 0.587
-0.05878662 0.1105858 0.587
-0.02822086 0.1105858 0.587
-0.02673805 0.1107742 0.588
-0.08185014 0.1123051 0.588
-0.08031926 0.1123051 0.588
-0.07865437 0.1121141 0.587
-0.07712609 0.1121141 0.587
-0.07559779 0.1121141 0.587
-0.0740695 0.1121141 0.587
-0.07254121 0.1121141 0.587
-0.07101293 0.1121141 0.587
-0.02061448 0.1123051 0.588
-0.08338103 0.113836 0.588
-0.01293798 0.1136424 0.587
-0.01142913 0.113836 0.588
-0.009898237 0.113836 0.588
-0.008367346 0.113836 0.588
-0.006836453 0.113836 0.588
-0.08476753 0.1151707 0.587
0.002344902 0.1151707 0.587
0.003879788 0.1153669 0.588
0.01153425 0.1168978 0.588
0.01306514 0.1168978 0.588
0.02068436 0.1182273 0.587
0.02225049 0.1184287 0.588
0.02837406 0.1199595 0.588
0.03138238 0.1212838 0.587
0.03449762 0.1230213 0.588
-0.09409728 0.1245522 0.588
-0.09562817 0.1260831 0.588
-0.09546554 0.127397 0.587
0.0375594 0.127614 0.588
-0.09715907 0.1306758 0.588
-0.09715907 0.1322067 0.588
0.0390903 0.1322067 0.588
0.0390903 0.1337376 0.588
0.0390903 0.1352685 0.588
0.03902382 0.1365667 0.587
-0.05745343 0.1078956 0.589
-0.05591993 0.1078956 0.589
-0.05438644 0.1078956 0.589
-0.07125489 0.1094291 0.589
-0.06972139 0.1094291 0.589
-0.0681879 0.1094291 0.589
-0.0666544 0.1094291 0.589
-0.06512091 0.1094291 0.589
-0.06358741 0.1094291 0.589
-0.06205391 0.1094291 0.589
-0.06052042 0.1094291 0.589
-0.04518546 0.1094291 0.589
-0.04365197 0.1094291 0.589
-0.04211847 0.1094291 0.589
-0.08045586 0.1109626 0.589
-0.07892237 0.1109626 0.589
-0.07738887 0.1109626 0.589
-0.02525003 0.1109626 0.589
-0.01911604 0.1124961 0.589
-0.08505635 0.1140296 0.589
-0.005314586 0.1140296 0.589
-0.00378109 0.1140296 0.589
-0.08658984 0.1155631 0.589
-0.08812333 0.1170966 0.589
0.01462085 0.1170966 0.589
0.01615435 0.1170966 0.589
-0.08965683 0.1186301 0.589
0.02382183 0.1186301 0.589
-0.09119033 0.1201636 0.589
0.02995581 0.1201636 0.589
-0.09272382 0.1216971 0.589
0.0330228 0.1216971 0.589
-0.09425731 0.1232306 0.589
0.03608979 0.1247641 0.589
-0.0973243 0.1293646 0.589
0.03915678 0.130898 0.589
-0.06830367 0.1080788 0.59
-0.06676757 0.1080788 0.59
-0.06523146 0.1080788 0.59
-0.06369536 0.1080788 0.59
-0.06215927 0.1080788 0.59
-0.06062317 0.1080788 0.59
-0.05908707 0.1080788 0.59
-0.05294267 0.1080788 0.59
-0.05140658 0.1080788 0.59
-0.04987048 0.1080788 0.59
-0.04833438 0.1080788 0.59
-0.07905636 0.1096149 0.59
-0.07752026 0.1096149 0.59
-0.07598416 0.1096149 0.59
-0.07444806 0.1096149 0.59
-0.07291196 0.1096149 0.59
-0.04065388 0.1096149 0.59
-0.03911778 0.1096149 0.59
-0.03758169 0.1096149 0.59
-0.03604558 0.1096149 0.59
-0.08212855 0.111151 0.59
-0.0237568 0.111151 0.59
-0.08366465 0.1126871 0.59
-0.0176124 0.1126871 0.59
-0.0160763 0.1126871 0.59
-0.002251411 0.1142232 0.59
0.005429084 0.1157593 0.59
0.006965183 0.1157593 0.59
0.01771788 0.1172954 0.59
0.02539837 0.1188315 0.59
-0.09595344 0.1249759 0.59
0.03768716 0.126512 0.59
-0.09748954 0.1280481 0.59
0.03922326 0.1295842 0.59
-0.05918721 0.1067233 0.591
-0.07457424 0.108262 0.591
-0.07303554 0.108262 0.591
-0.07149684 0.108262 0.591
-0.06995814 0.108262 0.591
-0.0468776 0.108262 0.591
-0.08072905 0.1098007 0.591
-0.03456798 0.1098007 0.591
-0.08688387 0.1144168 0.591
-0.000716524 0.1144168 0.591
-0.08842256 0.1159555 0.591
0.00851569 0.1159555 0.591
0.01928661 0.1174942 0.591
-0.07161781 0.1069039 0.592
-0.0700765 0.1069039 0.592
-0.0685352 0.1069039 0.592
-0.06699389 0.1069039 0.592
-0.06545259 0.1069039 0.592
-0.06391128 0.1069039 0.592
-0.06236997 0.1069039 0.592
-0.06082867 0.1069039 0.592
-0.05774606 0.1069039 0.592
-0.05620475 0.1069039 0.592
-0.05466345 0.1069039 0.592
-0.05312214 0.1069039 0.592
-0.05158084 0.1069039 0.592
-0.07932434 0.1084452 0.592
-0.07778303 0.1084452 0.592
-0.07624172 0.1084452 0.592
-0.04541561 0.1084452 0.592
-0.08240695 0.1099865 0.592
-0.03308516 0.1099865 0.592
-0.03154385 0.1099865 0.592
-0.03000255 0.1099865 0.592
-0.02846124 0.1099865 0.592
-0.08394825 0.1115278 0.592
-0.02229602 0.1115278 0.592
-0.08548956 0.1130691 0.592
-0.01458949 0.1130691 0.592
-0.01304818 0.1130691 0.592
0.0008235695 0.1146104 0.592
-0.09011348 0.117693 0.592
-0.09165478 0.1192343 0.592
0.02702577 0.1192343 0.592
-0.09319609 0.1207756 0.592
0.03164969 0.1207756 0.592
-0.0947374 0.1223169 0.592
0.0347323 0.1223169 0.592
0.03627361 0.1238582 0.592
0.03781491 0.1253995 0.592
-0.09782001 0.1269408 0.592
0.03935622 0.1284821 0.592
0.04089752 0.1315648 0.592
-0.0732827 0.1055405 0.5930001
-0.07173879 0.1055405 0.5930001
-0.07019488 0.1055405 0.5930001
-0.06865098 0.1055405 0.5930001
-0.06710706 0.1055405 0.5930001
-0.06556316 0.1055405 0.5930001
-0.06401924 0.1055405 0.5930001
-0.06247533 0.1055405 0.5930001
-0.06093143 0.1055405 0.5930001
-0.05938751 0.1055405 0.5930001
-0.05784361 0.1055405 0.5930001
-0.05629969 0.1055405 0.5930001
-0.07791443 0.1070844 0.5930001
-0.07637052 0.1070844 0.5930001
-0.07482661 0.1070844 0.5930001
-0.0732827 0.1070844 0.5930001
-0.05012406 0.1070844 0.5930001
-0.08100225 0.1086283 0.5930001
-0.04394842 0.1086283 0.5930001
-0.02696541 0.1101723 0.5930001
-0.02078977 0.1117162 0.5930001
-0.0871779 0.1132601 0.5930001
-0.01152632 0.1132601 0.5930001
-0.009982406 0.1132601 0.5930001
-0.008438497 0.1132601 0.5930001
0.00236887 0.114804 0.5930001
0.01008842 0.1163479 0.5930001
0.01163233 0.1163479 0.5930001
0.02089578 0.1178918 0.5930001
0.02861534 0.1194357 0.5930001
-0.09644134 0.1240674 0.5930001
0.0394227 0.1271553 0.5930001
-0.07031325 0.104172 0.594
-0.06876674 0.104172 0.594
-0.06722023 0.104172 0.594
-0.06567372 0.104172 0.594
-0.0641272 0.104172 0.594
-0.06258068 0.104172 0.594
-0.07649931 0.1057185 0.594
-0.07495279 0.1057185 0.594
-0.05484812 0.1057185 0.594
-0.05330161 0.1057185 0.594
-0.07959233 0.107265 0.594
-0.04866207 0.107265 0.594
-0.08268536 0.1088115 0.594
-0.04247601 0.1088115 0.594
-0.0409295 0.1088115 0.594
-0.08423187 0.110358 0.594
-0.02546437 0.110358 0.594
-0.08577839 0.1119046 0.594
-0.01927832 0.1119046 0.594
-0.006906214 0.1134511 0.594
-0.005359701 0.1134511 0.594
-0.0888714 0.1149976 0.594
0.003919378 0.1149976 0.594
-0.09041792 0.1165441 0.594
0.01319846 0.1165441 0.594
0.02247754 0.1180906 0.594
0.02402405 0.1180906 0.594
-0.09351096 0.1196371 0.594
0.0302101 0.1196371 0.594
0.03330313 0.1211836 0.594
-0.09815049 0.1258232 0.594
0.04103569 0.1304627 0.594
-0.07352985 0.1043474 0.595
-0.07198074 0.1043474 0.595
-0.06113692 0.1043474 0.595
-0.05958781 0.1043474 0.595
-0.05803869 0.1043474 0.595
-0.07817721 0.1058965 0.595
-0.08127545 0.1074456 0.595
-0.04719487 0.1074456 0.595
-0.03944929 0.1089947 0.595
-0.01776166 0.1120929 0.595
-0.003819607 0.1136421 0.595
0.01476979 0.1167403 0.595
-0.09211926 0.1182894 0.595
-0.09521749 0.1213876 0.595
-0.09676661 0.1229368 0.595
0.03645743 0.1229368 0.595
0.04110477 0.1291332 0.595
-0.07210172 0.102971 0.596
-0.07054999 0.102971 0.596
-0.06899828 0.102971 0.596
-0.06744655 0.102971 0.596
-0.06589483 0.102971 0.596
-0.06434312 0.102971 0.596
-0.06279139 0.102971 0.596
-0.07688566 0.1031438 0.597
-0.07533133 0.1031438 0.597
-0.07377701 0.1031438 0.597
-0.06134243 0.1031438 0.597
-0.07843999 0.1046981 0.597
-0.07675687 0.1045227 0.596
-0.07520515 0.1045227 0.596
-0.05658451 0.1045227 0.596
-0.05512513 0.1046981 0.597
-0.08154864 0.1062524 0.597
-0.07986031 0.1060745 0.596
-0.05192935 0.1060745 0.596
-0.05046216 0.1062524 0.597
-0.08310296 0.1078067 0.597
-0.04572247 0.1076262 0.596
-0.04424486 0.1078067 0.597
-0.08465728 0.1093611 0.597
-0.03796387 0.1091779 0.596
-0.03641215 0.1091779 0.596
-0.03486043 0.1091779 0.596
-0.0333646 0.1093611 0.597
-0.03181027 0.1093611 0.597
-0.0860672 0.1107296 0.596
-0.02399839 0.1107296 0.596
-0.02248433 0.1109154 0.597
-0.08761892 0.1122813 0.596
-0.01623979 0.1122813 0.596
-0.01471271 0.1124697 0.597
-0.08917063 0.1138331 0.596
-0.002274306 0.1138331 0.596
-0.0007237984 0.1140241 0.597
0.0008305254 0.1140241 0.597
-0.09087458 0.1155784 0.597
0.005484295 0.1153848 0.596
0.007036015 0.1153848 0.596
0.008602144 0.1155784 0.597
0.01634634 0.1169365 0.596
0.01789806 0.1169365 0.596
-0.0924289 0.1171327 0.597
0.01948241 0.1171327 0.597
0.02565666 0.1184882 0.596
0.02725403 0.118687 0.597
0.031917 0.1202414 0.597
0.03496698 0.1215917 0.596
-0.09848095 0.1246951 0.596
0.03807042 0.1246951 0.596
0.03962214 0.1262468 0.596
-0.07078674 0.1017596 0.598
-0.06922982 0.1017596 0.598
-0.05988825 0.1033166 0.598
-0.08012831 0.1048735 0.598
-0.04898976 0.1064304 0.598
-0.03030663 0.1095443 0.598
-0.01318043 0.1126581 0.598
-0.09414066 0.1188858 0.598
0.02885661 0.1188858 0.598
-0.09569758 0.1204428 0.598
-0.09725451 0.1219997 0.598
-0.07402418 0.1019298 0.599
-0.07246464 0.1019298 0.599
-0.06778605 0.1019298 0.599
-0.06622653 0.1019298 0.599
-0.07870277 0.1034893 0.599
-0.05842887 0.1034893 0.599
-0.05686934 0.1034893 0.599
-0.05375027 0.1050489 0.599
-0.04283356 0.1081679 0.599
-0.08650043 0.1097275 0.599
-0.02879778 0.1097275 0.599
-0.02723825 0.1097275 0.599
-0.02100012 0.111287 0.599
-0.01164294 0.1128465 0.599
-0.01008341 0.1128465 0.599
-0.008523878 0.1128465 0.599
0.002392838 0.114406 0.599
0.01175002 0.1159656 0.599
0.03358346 0.1206442 0.599
0.03670252 0.1222037 0.599
0.03826205 0.1237632 0.599
0.03982158 0.1253228 0.599
-0.07727202 0.1021 0.6
-0.07570989 0.1021 0.6
-0.06477495 0.1021 0.6
-0.06321281 0.1021 0.6
-0.08039629 0.1036621 0.6
-0.08195843 0.1052242 0.6
-0.05227787 0.1052242 0.6
-0.08352056 0.1067864 0.6
-0.04759147 0.1067864 0.6
-0.08508269 0.1083485 0.6
-0.04134293 0.1083485 0.6
-0.0397808 0.1083485 0.6
-0.02572159 0.1099106 0.6
-0.08820697 0.1114728 0.6
-0.01947305 0.1114728 0.6
-0.0897691 0.1130349 0.6
-0.006975973 0.1130349 0.6
-0.005413839 0.1130349 0.6
-0.09133123 0.114597 0.6
0.003958968 0.114597 0.6
-0.09289337 0.1161592 0.6
0.01333177 0.1161592 0.6
0.02270458 0.1177213 0.6
0.03051525 0.1192834 0.6
-0.06175343 0.1022701 0.601
-0.06018869 0.1022701 0.601
-0.05549448 0.1038349 0.601
-0.05080026 0.1053996 0.601
-0.04610605 0.1069643 0.601
-0.03828236 0.1085291 0.601
-0.01794077 0.1116586 0.601
-0.003858124 0.1132233 0.601
-0.002293386 0.1132233 0.601
0.005530304 0.114788 0.601
-0.09461293 0.1179175 0.601
0.02430716 0.1179175 0.601
-0.09617766 0.1194822 0.601
-0.0977424 0.121047 0.601
0.03526033 0.121047 0.601
-0.07909694 0.1024403 0.6020001
-0.08536631 0.1071423 0.6020001
-0.08693365 0.1087097 0.6020001
-0.03677872 0.1087097 0.6020001
-0.01640328 0.1118444 0.6020001
0.007106848 0.114979 0.6020001
0.02591495 0.1181137 0.6020001
0.03218431 0.1196811 0.6020001
0.03845368 0.1228157 0.6020001
-0.07451849 0.1010405 0.603
-0.07294855 0.1010405 0.603
-0.0713786 0.1010405 0.603
-0.06980866 0.1010405 0.603
-0.06823871 0.1010405 0.603
-0.05881904 0.1026105 0.603
-0.08236822 0.1041804 0.603
-0.05410921 0.1041804 0.603
-0.08393817 0.1057504 0.603
-0.04939938 0.1057504 0.603
-0.04468954 0.1073203 0.603
-0.03526987 0.1088902 0.603
-0.03369992 0.1088902 0.603
-0.08864801 0.1104602 0.603
-0.09021795 0.1120301 0.603
-0.01486058 0.1120301 0.603
-0.09178789 0.1136001 0.603
-0.0007310728 0.1136001 0.603
0.0008388724 0.1136001 0.603
-0.09335784 0.11517 0.603
0.008688599 0.11517 0.603
0.02752794 0.1183099 0.603
0.03380772 0.1198799 0.603
0.03694761 0.1214498 0.603
-0.07621462 0.1012081 0.604
-0.06677933 0.1012081 0.604
-0.08093227 0.1027806 0.604
-0.05734404 0.1027806 0.604
-0.0431911 0.1074983 0.604
-0.01331268 0.1122159 0.604
-0.01016758 0.1122159 0.604
0.01027556 0.115361 0.604
-0.09508521 0.1169336 0.604
0.02914614 0.1185061 0.604
-0.07804474 0.1015432 0.606
-0.06531474 0.1013756 0.605
-0.06384493 0.1015432 0.606
-0.06226718 0.1015432 0.606
-0.08435576 0.1046987 0.606
-0.05271352 0.1045259 0.605
-0.08593352 0.1062765 0.606
-0.04798806 0.1061011 0.605
-0.08751128 0.1078542 0.606
-0.04175636 0.1078542 0.606
-0.08908904 0.109432 0.606
-0.09066679 0.1110097 0.606
-0.01966778 0.1110097 0.606
-0.09224454 0.1125875 0.606
-0.008609259 0.1124017 0.605
-0.007045733 0.1125875 0.606
0.002416807 0.1139769 0.605
0.003998557 0.1141653 0.606
0.01186772 0.115552 0.605
0.01346509 0.115743 0.606
0.02135387 0.1173208 0.606
0.02293163 0.1173208 0.606
0.03076955 0.1187023 0.605
0.035495 0.1202775 0.605
-0.07975389 0.1017108 0.6070001
