# .PCD v0.7 - Point Cloud Data file format
VERSION 0.7
FIELDS x y z
SIZE 4 4 4
TYPE F F F
COUNT 1 1 1
WIDTH 742
HEIGHT 1
VIEWPOINT 0 0 0 1 0 0 0
POINTS 742
DATA ascii
0.014686543486526732 -0.0026582375661601265 0.008277146207796016
0.01613254488334817 -0.0026536948038491937 0.008703168478693846
0.01757854244324822 -0.0026491520535922852 0.009129189619154321
0.019024542880839324 -0.0026446092942948862 0.009555211607442826
0.02047054427766079 -0.002640066531983898 0.009981233878340656
0.021916545674482257 -0.002635523769672965 0.010407256149238542
0.023362547071303724 -0.0026309810073619766 0.010833278420136372
0.02480854846812519 -0.0026264382450510437 0.011259300691034202
0.026254549481254524 -0.00262189548394548 0.011685322848888291
0.027700550782152944 -0.0026173527219358617 0.012111345091525227
0.02914655169935923 -0.002612809961131668 0.012537367221118367
-0.04287594279694912 -0.0017064759998280943 -0.00971792017545492
-0.04142995099243124 -0.0017019332676523335 -0.009291900730650449
-0.03998394959560975 -0.0016973905053414007 -0.008865878459752619
-0.03853794819878831 -0.0016928477430304123 -0.008439856188854788
-0.03709194680196684 -0.0016883049807194794 -0.008013833917956958
-0.035645945405145374 -0.001683762218408491 -0.007587811647059128
-0.03419994400832391 -0.0016792194560975582 -0.007161789376161298
-0.03275394261150244 -0.0016746766937865698 -0.006735767105263413
-0.031307941214680945 -0.001670133931475637 -0.006309744834365583
-0.029861939817859506 -0.0016655911691646486 -0.005883722563467753
-0.02841593842103801 -0.0016610484068537157 -0.0054577002925699225
0.042438120430910276 -0.001438453083751956 0.015417388155330836
-0.051274372767637105 -0.0006001853512130895 -0.013228295473886209
-0.04982837137081564 -0.0005956425889021011 -0.012802273202988379
-0.048382379566297734 -0.0005910998567263404 -0.012376253758183908
-0.046936378169476295 -0.0005865570944154075 -0.011950231487286078
0.04705370303161549 -0.00029127757433833334 0.015741213294980072
0.04849970442843694 -0.00028673481202734497 0.016167235565877902
-0.052442805346521376 0.0005288190788215741 -0.014608562243921708
0.05456128842596361 0.0008649834596972661 0.016917082976425024
-0.05505724814308505 0.0016532055828348269 -0.016414785159148126
-0.05361124674626358 0.0016577483451458153 -0.015988762888250296
0.057730851216685794 0.0020075410129543614 0.016814949144789926
-0.05594811113258641 0.003915682071639892 -0.01874922747652097
0.05973199102082735 0.004279103026381348 0.015332551369212799
-0.05711653411916709 0.005044686531809672 -0.020129491420463053
-0.0568389557089263 0.006178233754290441 -0.021083733093507306
-0.05656139571184704 0.007311705782925615 -0.022037911466938065
0.06201070923520968 0.007684212262288992 0.012895911920591363
-0.056283817301606226 0.008445253005406383 -0.02299215313998232
0.062288287645450496 0.00881775948476976 0.01194167024754711
-0.05600623889136541 0.009578800227887208 -0.023946394813026572
-0.05572867889428615 0.010712272256522382 -0.02490057318645733
-0.053727539090144605 0.012983834269949368 -0.02638297096203457
-0.05200395928308235 0.01412192425474107 -0.026911190364180937
0.0651221442671529 0.014489887971793514 0.007596610752450661
-0.05028039788918162 0.015259939045687232 -0.02743934646671392
0.06539970426423217 0.015623360000428688 0.006642432379019847
0.06567728267447295 0.01675690722290951 0.005688190705975649
0.06595486108471377 0.01789045444539028 0.004733949032931395
-0.023450928550313527 -0.0031015211463630843 -0.0012757340920323545
-0.022002433154558937 -0.0030969705488976262 -0.0008489770368587668
-0.02055393775880432 -0.003092419951432168 -0.00042221998168517905
-0.01910543277074614 -0.0030878693238314825 4.539899581823548e-06
-0.01765693737499155 -0.0030833187263660244 0.0004312969547554113
-0.01620843238693337 -0.0030787680987653387 0.0008580568360223584
-0.01475993699117878 -0.0030742175012998807 0.0012848138911959461
-0.013311441595424162 -0.0030696669038344226 0.0017115709463695339
-0.011862946199669572 -0.0030651163063689646 0.002138328001543177
-0.010414441211611392 -0.003060565678768279 0.0025650878828101242
-0.008965945815856802 -0.003056015081302821 0.002991844937983712
-0.007517440827798594 -0.003051464453702135 0.003418604819250659
-0.006068945432044004 -0.003046913856236677 0.0038453618744243023
-0.004620450036289414 -0.003042363258771219 0.00427211892959789
-0.0031719546405348242 -0.003037812661305761 0.004698875984771478
-0.0017234496524766163 -0.0030332620337050753 0.005125635866038425
-0.00027495425672202645 -0.0030287114362396172 0.005552392921212013
0.0011735411390325634 -0.003024160838774159 0.005979149976385656
0.0026220461270907436 -0.003019610211173529 0.006405909857652603
0.004070541522845361 -0.0030150596137080155 0.006832666912826191
0.005519046510903541 -0.0030105089861073853 0.007259426794093138
0.006967541906658131 -0.003005958388641927 0.007686183849266781
0.008416037302412721 -0.003001407791176469 0.008112940904440369
0.017107030780008192 -0.002974104140086198 0.010673489452887375
0.018555529053453867 -0.0029695535335801937 0.011100247355888937
-0.03476086334082021 -0.002002423754025928 -0.00564568647469571
-0.033312358352762 -0.0019978731264252425 -0.005218926593428708
-0.03186386295700741 -0.0019933225289597845 -0.00479216953825512
-0.03041536756125282 -0.0019887719314943264 -0.004365412483081532
-0.02896686257319464 -0.0019842213038936407 -0.003938652601814585
-0.027518367177440023 -0.0019796707064281827 -0.0035118955466409973
0.011591094838666383 -0.001856804303643822 0.008010570377886439
0.030421575271151205 -0.0017976464100249445 0.013558423964735389
-0.05186478930664881 -0.000921528781685832 -0.011722669904146776
-0.05041628431859063 -0.0009169781540851463 -0.011295910022879774
-0.04896779851513963 -0.0009124275867549159 -0.010869155793799545
-0.047519293527081424 -0.0009078769591542302 -0.010442395912532598
-0.046070798131326834 -0.0009033263616887721 -0.01001563885735901
-0.04462229314326868 -0.0008987757340880864 -0.009588878976092008
0.04373611784383352 -0.0006211886859907034 0.016443357911364753
-0.05303524596312406 0.0002093476894696189 -0.013105251122701334
0.04980815735073846 0.0005324408327624375 0.01719456762086491
0.05125665274649305 0.0005369914302278955 0.017621324676038497
-0.05420569379874138 0.0013402993243354366 -0.014487898466962745
0.0558802056785013 0.0016861455152260008 0.01794571120465821
-0.056546588698530326 0.0036021274604918774 -0.0172531242036853
0.0593333019540343 0.003966176071379501 0.016887516514723422
-0.05771702694184405 0.004733079125492923 -0.018635768721853407
0.061337893241509164 0.006241655999932372 0.015402561943521631
0.061615950393950056 0.007377158262398875 0.014446674480527166
-0.05833137888574111 0.008134960091446097 -0.021930127692490198
-0.055770682114242465 0.012681369381221552 -0.025326791063974008
0.06445469472558599 0.01305906978450555 0.010094120819955532
0.06473275187802688 0.014194572046972054 0.009138233356961067
-0.05376609082676759 0.014956849309774367 -0.0268117456351758
-0.0010559248465697169 -0.004494983919009987 0.008048698775662444
-0.021091336400592797 -0.0034213449745894575 0.0011062515094931724
-0.018189348018913754 -0.003412228079214319 0.0019612380144852226
-0.01673834903192245 -0.003407669616459108 0.002388732680027983
-0.01528735004493112 -0.0034031111537039527 0.0028162273455706877
-0.013836351057939816 -0.0033985526909487973 0.0032437220111133924
-0.012385361663252076 -0.003393994258328814 0.003671213850562738
-0.010934362676260773 -0.0033894357955736587 0.004098708516105498
-0.00948336368926947 -0.003384877332818448 0.004526203181648203
-0.008032374294581729 -0.0033803189001984646 0.004953695021097548
-0.006581375307590426 -0.0033757604374433092 0.005381189686640309
-0.005130385912902685 -0.003371202004823326 0.005808681526089654
-0.003679386925911382 -0.0033666435420681706 0.006236176191632359
-0.002228387938920051 -0.0033620850793130153 0.006663670857175064
-0.000777388951928748 -0.0033575266165578044 0.007091165522717824
0.0006736004427589926 -0.0033529681839378767 0.007518657362167169
0.0021245994297502957 -0.0033484097211826658 0.007946152027709874
0.0035755984167416266 -0.0033438512584275104 0.008373646693252634
0.00502659740373293 -0.0033392927956722995 0.008801141358795339
0.00647758679842067 -0.003334734363052372 0.009228633198244685
0.007928585785411973 -0.003330175900297161 0.009656127863787445
0.009379575180099714 -0.003325617467677233 0.01008361970323679
-0.03242078203813312 -0.0023204304776185958 -0.003271167289899679
-0.030969792643445376 -0.0023158720449986125 -0.0028436754504503337
-0.029518793656454073 -0.002311313582243457 -0.002416180784907629
-0.028067804261766333 -0.002306755149623474 -0.0019886889454582835
-0.02661680527477503 -0.0023021966868683186 -0.0015611942799155787
-0.025165806287783726 -0.0022976382241131077 -0.0011336996143728184
0.00965809266157916 -0.0021882353590705894 0.00912614974990561
0.011109091648570463 -0.0021836768963153785 0.009553644415448315
0.012560090635561766 -0.002179118433560223 0.00998113908099102
0.014011080030249506 -0.00217456000094024 0.01040863092044042
0.01546207901724081 -0.0021700015381850846 0.010836125585983125
0.01981506830437188 -0.002156326174027723 0.012118607321736585
0.021266064413672126 -0.0021517677203131136 0.012546101139451316
0.02271706052297237 -0.0021472092665985043 0.012973594957166046
0.024168056632272616 -0.002142650812883895 0.01340108877488072
0.025619052645649815 -0.0021380923594706003 0.013828582564334502
0.02707004856310398 -0.002133533906358731 0.014256076325527334
-0.04955421480278077 -0.0012376746679580997 -0.00935863087717026
-0.04810321581578944 -0.0012331162052028888 -0.008931136211627555
-0.04665221682879811 -0.0012285577424477334 -0.00850364154608485
-0.04520121784180681 -0.001223999279692578 -0.00807614688054209
-0.043750218854815504 -0.0012194408169373672 -0.007648652214999385
-0.04229921986782417 -0.0012148823541822118 -0.00722115754945668
-0.04084823047313646 -0.0012103239215622286 -0.0067936657100072795
-0.03939723148614513 -0.0012057654588070732 -0.006366171044464575
-0.037946232499153826 -0.0012012069960518623 -0.00593867637892187
-0.03649524310446611 -0.0011966485634319346 -0.0055111845394725245
0.03170157211418441 -0.0009824012448721442 0.014581024327900316
0.033152568223484655 -0.000977842791157535 0.015008518145615046
0.034603564332784886 -0.0009732843374429256 0.015436011963329777
0.03605456044208513 -0.0009687258837283164 0.015863505781044507
-0.05362865668450656 -0.00011389269350098319 -0.011598642474556331
0.04503907299252753 0.0001960821410115221 0.017470935434388157
-0.054801138190018445 0.0010189309523503942 -0.012983607093430216
0.052572566224356354 0.0013562565031235985 0.018650933156583838
-0.05597359169006519 0.002151829822182705 -0.014368632185824182
-0.05714605478241558 0.0032847286618796767 -0.015753660104311562
-0.058318536287927436 0.00441755230773111 -0.017138624723185447
0.06094167673241169 0.005928802802727451 0.016958333946039073
-0.0592124634856368 0.006687908449880264 -0.019481185894617448
-0.058933946004157356 0.007825290558486853 -0.020438655847948572
-0.05837687421487542 0.010100205163391274 -0.022353722353837813
0.06350679129250178 0.010483115251310626 0.013555756073323377
-0.058098356733396 0.011237587271997862 -0.023311192307168993
0.0637853087739812 0.011620497359917215 0.012598286119992197
-0.05781982083875503 0.012375044574450045 -0.024268725560113613
0.06406384466862217 0.012757954662369397 0.011640752867047577
-0.055811768475643314 0.014654442448264082 -0.02575623410084671
-0.009065140915367947 -0.004049908390661328 0.008033879589812776
-0.00760914433820678 -0.004045334227461894 0.00846284665000041
-0.0061531573533492034 -0.004040760094397744 0.00889181088409463
-0.004697160776188036 -0.004036185931198366 0.00932077794428221
-0.003013316759766238 -0.004834305741175771 0.00916423977072045
-0.0017851868064728826 -0.004027037665069955 0.010178706412470706
-0.0003291902293117155 -0.004022463501870577 0.010607673472658341
-0.024801542738974502 -0.002958856592484571 0.002354436877557653
-0.023345555754116926 -0.0029542824594203654 0.0027834011116519286
-0.02188955917695576 -0.0029497082962209875 0.003212368171839508
-0.02043357219209818 -0.0029451341631568373 0.0036413324059337837
-0.018977575614937015 -0.002940559999957404 0.004070299466121363
-0.017521588630079438 -0.0029359858668932537 0.004499263700215639
-0.01606560164522186 -0.002931411733829048 0.004928227934309859
-0.014609605068060694 -0.00292683757062967 0.005357194994497438
-0.013153618083203117 -0.0029222634375654644 0.005786159228591714
-0.01169762150604195 -0.0029176892743660865 0.0062151262887792935
-0.0102416345211844 -0.0029131151413018808 0.006644090522873569
-0.008785647536326824 -0.0029085410082377305 0.007073054756967789
-0.007329650959165657 -0.002903966845038297 0.007502021817155424
-0.005641288094774072 -0.0037040259945572696 0.0073486018281886945
-0.004187795108849618 -0.003699459696647589 0.007776831278007157
-0.002734302122925164 -0.0036948933987379085 0.008205060727825675
0.0001726838489237159 -0.0036857608029185474 0.0090615196274626
0.0016261768348481698 -0.003681194505008867 0.009489749077281118
0.0028622771194445618 -0.002871947853318624 0.010504777108001795
-0.03471398703084713 -0.0018495082319158196 -0.001609146072227119
-0.033257990453685965 -0.0018449340687164417 -0.0011801790120395395
-0.03180200346882839 -0.001840359935652236 -0.0007512147779453193
-0.03034600689166725 -0.0018357857724528581 -0.00032224771775768435
-0.028890019906809644 -0.001831211639388708 0.00010671651633653578
-0.027164677839103285 -0.0026331081508997323 -3.40217880767657e-05
-0.02571118485317883 -0.0026285418529900517 0.00039420766174169675
-0.024257682274950815 -0.002623975524945199 0.0008224399376535185
-0.02280419888132995 -0.0026194092571706906 0.0012506665613786772
-0.019897212909481043 -0.0026102766613513295 0.002107125461015602
0.010626149387235884 -0.002514384375112866 0.011099946733297117
0.011877721184541917 -0.0017031355821042204 0.012117746158002318
0.013333708169399494 -0.0016985614490400702 0.012546710392096538
0.014789704746560661 -0.0016939872858406368 0.012975677452284173
0.01624569364987896 -0.001689413146749419 0.013404642251597099
0.017701684471657958 -0.0016848390016311887 0.013833607616128674
0.019157675293436982 -0.001680264856512903 0.014262572980660249
-0.05190639425247279 -0.0007631057606489189 -0.007717489718963022
-0.05045041685991883 -0.0007585316577199408 -0.007288528310962161
-0.04899442028275766 -0.0007539574945205629 -0.006859561250774582
-0.047538423705596494 -0.0007493833313211851 -0.006430594190586947
-0.04608242712843533 -0.0007448091681217517 -0.006001627130399367
-0.04462644014357772 -0.0007402350350576015 -0.005572662896305092
-0.04317045315872017 -0.0007356609019933957 -0.005143698662210872
-0.0417144661738626 -0.0007310867689292455 -0.0047147344281166514
-0.0402584695967014 -0.0007265126057298121 -0.0042857673679290165
-0.03880248261184385 -0.0007219384726656619 -0.0038568031338347963
-0.037060132516894884 -0.001525735087675173 -0.003990743680087505
-0.03560663953097043 -0.0015211687897654924 -0.0035625142302690427
-0.034153146545045976 -0.0015166024918558119 -0.0031342847804505247
0.02817309423076028 -0.0005115278002388868 0.015875603352008882
-0.05453888443545041 0.00036911332551115006 -0.009536245846089864
-0.05276955031752634 -0.0004365520523790245 -0.009660449497078949
-0.051316047739298265 -0.0004319857243341163 -0.009232217221167072
0.03734704358670006 -0.00015344149157325848 0.016889784869947022
0.038644522403024115 0.0006618585949991207 0.017917535788275707
0.04010050938788169 0.0006664327280633264 0.018346500022369927
-0.05571538763357042 0.0015059065447353692 -0.01092603773912254
0.046347016139087774 0.0010133686383227425 0.01849998252596302
0.047659956875817894 0.0018306708360782409 0.019530502012182815
-0.05689188123938682 0.0026426997940947605 -0.012315826806061747
0.05376341737889653 0.002990334811029005 0.02028553976790154
-0.05806839325836485 0.0037794178496085573 -0.01370555257338757
0.056954875906794836 0.004140775295870591 0.020182709528951848
-0.05924488686418128 0.004916211098968004 -0.015095341640326831
0.05881199511614857 0.0044680608852035175 0.01904834712153325
0.06042583663459229 0.006432658326846197 0.019118988331450204
-0.059816457238349746 0.006372373827099098 -0.017984773854131886
-0.06131840870223815 0.008331089756129673 -0.01883568413353026
0.06244080155667418 0.008719892061047174 0.017626369025561306
-0.061038915323196996 0.00947245713855327 -0.019796508966375248
0.06272029493571533 0.009861259443470771 0.01666554419271632
0.06311401744587965 0.010174104805521167 0.01510903740592312
-0.06075942194415587 0.010613824520976867 -0.02075733379922029
-0.06047992856511472 0.011755191903400464 -0.021718158632065332
-0.06020045359923515 0.012896484091978466 -0.022678920165296823
-0.05786339160678544 0.014348109836473222 -0.024698900555168712
0.06585320536849665 0.016713887483385426 0.01132968602896739
0.06613269874753777 0.017855254865808967 0.010368861196122348
-0.023887891552541646 -0.003292999818999165 0.004319499314556663
-0.022429400976447328 -0.003288417820645262 0.004749201159020056
-0.020970919992656628 -0.0032838358524265865 0.005178900177390033
-0.019512419824258748 -0.003279253823937456 0.005608604847946785
-0.018053938840468048 -0.0032746718557187804 0.006038303866316763
-0.016595448264373758 -0.0032700898573648773 0.006468005710780156
-0.015136957688279468 -0.0032655078590109743 0.006897707555243493
-0.01367847670448874 -0.003260925890792299 0.007327406573613471
-0.01221997653609086 -0.003256343862303168 0.007757111244170223
-0.01076149555230016 -0.003251761894084493 0.0081868102625402
0.0009064098718470082 -0.0032151059675237237 0.011624419366060401
-0.033817334279353295 -0.0021817513247967546 0.0003491214327046577
-0.03235884370325898 -0.0021771693264428515 0.0007788232771679948
-0.030900362719468277 -0.0021725873582241206 0.0012085222955380281
-0.029441872143373987 -0.002168005359870273 0.0016382241400013653
-0.027983381567279697 -0.00216342336151637 0.002067925984464758
-0.026524890991185407 -0.002158841363162467 0.002497627828928095
0.004103363145276817 -0.002062619548406641 0.011521352432191934
0.005561844129067517 -0.002058037580187966 0.011951051450561967
-0.051039220294332804 -0.0010934127922285208 -0.0057697628453708405
-0.049580739310542105 -0.0010888308240098454 -0.005340063827000863
-0.04812224873444779 -0.0010842488256559424 -0.00491036198253747
-0.046663758158353524 -0.0010796668273020393 -0.004480660138074133
-0.045205267582259206 -0.0010750848289481363 -0.00405095829361074
-0.043746777006164944 -0.0010705028305942332 -0.003621256449147403
-0.042288296022374244 -0.0010659208623755578 -0.0031915574307773698
-0.040829805446279926 -0.0010613388640216548 -0.0027618555863140326
-0.03937132446248923 -0.0010567568958029794 -0.0023321565679439993
-0.037912824294091346 -0.0010521748673139042 -0.0019024518973873028
-0.03645433371799703 -0.0010475928689600011 -0.0014727500529239101
0.02042670282664452 -0.0008688952345101142 0.0152855936202137
0.021885190525047726 -0.0008643132451967572 0.015715294616849063
0.02334367918268132 -0.0008597312528699219 0.01614499589609375
-0.053676229325280156 4.074563347300497e-05 -0.007591637157092768
0.02945760497522648 0.0003019191358333284 0.016901330107667978
0.041405467944374774 0.0014818223030118594 0.019376533018443776
-0.05749176563193856 0.0023135693195195373 -0.010805617810366486
0.0489778737614803 0.002648054656920251 0.020562565965778656
-0.059848802541644736 0.0045910501676303395 -0.01358996274488361
-0.06074735769611453 0.006873037850384678 -0.015944539709230543
-0.06192587615096756 0.008011778274440051 -0.017336712176489133
-0.06024606183668177 0.014871637615050337 -0.023111472613646933
0.06518392626905212 0.015265688840646108 0.013842826662241847
0.0654638799771318 0.016408936069209845 0.012880419339060145
-0.03291659853961457 -0.0025180206424894047 0.0023120087667193867
-0.031455613964587154 -0.0025134308089809765 0.002742445395458537
-0.02999462938955974 -0.0025088409754726038 0.003172882024197632
-0.0285336448145323 -0.0025042511419641755 0.0036033186529367822
-0.027072660239504887 -0.002499661308455803 0.004033755281675877
-0.025611675664477446 -0.0024950714749473746 0.004464191910415027
0.0021470504456507777 -0.002407864578017338 0.012642493508645103
-0.04724601261105468 -0.001418641575448798 -0.0029564795856040216
-0.04578501844372368 -0.0014140517118051976 -0.002526040130771512
-0.04432403386869624 -0.001409461878296825 -0.0020956035020323616
-0.042863049293668826 -0.0014048720447883967 -0.0016651668732932667
-0.04140206471864141 -0.001400282211280024 -0.0012347302445541164
-0.039941080143614 -0.0013956923777715957 -0.0008042936158150216
-0.03848009556858653 -0.001391102544263223 -0.00037385698707587123
-0.03701911099355912 -0.0013865127107547948 5.65796416632236e-05
-0.035558126418531705 -0.001381922877246422 0.00048701627040237394
0.006810464626477941 -0.0012488175849619254 0.01296968980821045
0.008271449201505354 -0.0012442277514535527 0.0134001264369496
-0.05280949045541947 -0.0002917234169522165 -0.005642339687212505
0.02462274027032102 -4.846208942682617e-05 0.017170815851210774
-0.055451018334336605 0.0008443743482908217 -0.007467332183529518
0.030747133942254715 0.0011151747211653462 0.017928447281685744
0.03220811947651249 0.0011197645576872528 0.01835888419303422
0.03366910597000064 0.0011243543972226933 0.01878932138699202
-0.05663158005138788 0.0019849867531965826 -0.008861824751493885
0.04271544778890565 0.002297095672849525 0.02040788861151349
0.044176441956236656 0.002301685536493181 0.020838328066346
0.05030083111978767 0.003465322332921794 0.021595958168557083
-0.05899263788225653 0.004266362041105032 -0.011650928008369588
0.05496423570831124 0.004624369295841979 0.02192315164202907
0.05816666531411098 0.0057788264553890745 0.021819911312855267
-0.06135371489773234 0.006547737268743081 -0.014440036917432064
0.05990810075257971 0.0069286937512924585 0.021286231528848953
0.06192996864132819 0.009223763315745315 0.019788498631710782
-0.06315389900718352 0.011119592257460731 -0.01915731252627839
-0.06287344814374221 0.012264869719855742 -0.0201214289390238
0.06423230580667955 0.012664185536438721 0.017326586022213708
-0.0625929972803009 0.013410147182250753 -0.021085545351769208
0.06451275667012085 0.013809462998833733 0.0163624696094683
-0.06231256483002112 0.01455534945080017 -0.022049598464901177
0.06479318912040063 0.01495466526738315 0.015398416496336331
-0.03054836556138324 -0.0028535207484040037 0.004710903561025492
-0.029084886987422703 -0.002848923079741106 0.0051420749740404
-0.02762139882115855 -0.0028443253809429803 0.005573249213148612
-0.026157920247197985 -0.0028397277122800824 0.00600442062616352
-0.02469444167323745 -0.0028351300436171845 0.006435592039178428
-0.023230953506973295 -0.002830532344819059 0.00686676627828664
-0.02176747493301273 -0.002825934676156161 0.007297937691301548
-0.020303986766748605 -0.0028213369773580355 0.00772911193040976
-0.01884049860048445 -0.0028167392785599654 0.008160286169518027
-0.017377020026523887 -0.002812141609897012 0.008591457582532935
-0.01591354145256335 -0.002807543941234114 0.009022628995547788
-0.014450062878602815 -0.002802946272571216 0.009453800408562696
-0.012986574712338661 -0.0027983485737730907 0.009884974647670963
-0.011523086546074507 -0.0027937508749750206 0.010316148886779175
-0.010059607972113943 -0.002789153206312067 0.010747320299794083
-0.008596119805849817 -0.002784555507513997 0.011178494538902295
-0.007132641231889253 -0.0027799578388510437 0.011609665951917203
-0.005669162657928717 -0.002775360170188146 0.012040837364932111
-0.004205674491664563 -0.002770762471390076 0.012472011604040323
-0.041975302916640644 -0.0017430697158674069 0.0002957587498373382
-0.04051182434268008 -0.001738472047204509 0.0007269301628522462
-0.039048336176415954 -0.0017338743484063834 0.0011581044019605136
-0.03758485760245539 -0.0017292766797434855 0.001589275814975366
-0.03612137902849483 -0.0017246790110805876 0.002020447227990274
-0.0346578908622307 -0.001720081312282462 0.002451621467098486
0.003392667168386765 -0.0016005415654244404 0.013662112118605851
-0.05340223067959446 -0.0006326186531955824 -0.004119383235257401
-0.051938761697937486 -0.0006280210146679122 -0.0036882146483358524
-0.05047527353167333 -0.0006234233158697866 -0.0032570404092276406
-0.049011785365409205 -0.0006188256170716611 -0.0028258661701193732
0.009527530254477529 -0.00043491832812170284 0.014421041220156583
0.010991018420741683 -0.0004303206293235773 0.014852215459264795
-0.05458479883252079 0.0005100161202518105 -0.005516322503154536
0.02590677462920188 0.0007628886880622354 0.018198179425875816
-0.0572308359671041 0.0016480532551715887 -0.0073444303579733305
0.03496860196151845 0.001937707284990875 0.019819453444765323
-0.05841337534311966 0.0027906881190245536 -0.008741361147590443
-0.05959595231690393 0.003933247728761524 -0.010138234289780834
0.05162875503472372 0.004282671601874677 0.022630892012618142
-0.06077850128522311 0.005075882562479372 -0.01153516790549125
-0.06196106943814947 0.006218517335926821 -0.012932107173388496
-0.06286267920852362 0.008508384702160476 -0.015294800165701228
0.06153337367796338 0.008899187713780565 0.02135488015820519
-0.06376432657666656 0.010798176814278249 -0.017657435510587127
0.06355869305004513 0.011198175193359416 0.019854590465442357
0.06383962265568655 0.012345407695740107 0.018888828262746737
-0.032845309024623154 -0.0024080813510714005 0.006395120958033129
-0.031376832860492754 -0.00240346798196428 0.006827764765692912
-0.029908356696362354 -0.0023988546128571597 0.007260408573352695
-0.028439880532231954 -0.0023942412437500393 0.007693052381012477
-0.026971404368101554 -0.002389627874642919 0.008125696188672205
-0.025502928203971154 -0.002385014505535743 0.008558339996331987
-0.024034442447537163 -0.0023804011062934505 0.00899098663008513
-0.022565966283406763 -0.00237578773718633 0.009423630437744912
-0.021097490119276363 -0.0023711743680792097 0.00985627424540464
-0.0487166789246232 -0.0013076858891679644 0.0006669796389929816
-0.047248193168189206 -0.0013030724899256718 0.0010996262727461237
-0.0457797265963624 -0.0012984591509537236 0.001532267254312547
-0.044311240839928406 -0.001293845751711431 0.0019649138880656336
-0.042842764675798034 -0.0012892323826043106 0.0023975576957254163
-0.0413742981039712 -0.0012846190436323623 0.0028301986772918397
-0.039905812347537234 -0.0012800056443900698 0.0032628453110449818
-0.038437336183406806 -0.0012753922752829494 0.003695489118704709
-0.036968860019276434 -0.0012707789061757735 0.004128132926364492
-0.035219597365357236 -0.0020667396607983446 0.0039890816149558694
-0.03375361520015996 -0.002062134126845694 0.0044209906383398945
-0.03228763303496268 -0.0020575285928930986 0.0048528996617239195
-0.0029680281002316122 -0.0019654180343815497 0.013491068825030594
-0.0017253937109324158 -0.0011600579270640288 0.014511595614572381
-0.05430869649110326 -0.0001749967832443966 -0.0020326493742420793
-0.05284022991927645 -0.00017038344427244834 -0.0016000083926756559
-0.05106397365007856 -0.0009682129316402888 -0.0017293199827272954
-0.04959800107718487 -0.0009636074278228657 -0.0012974137854366852
-0.04813200931968403 -0.0009590018637350428 -0.0008655019359593008
-0.046666027154486756 -0.0009543963297824476 -0.00043359291257527577
-0.04520004498928948 -0.0009497907958297969 -1.6838891913062426e-06
-0.04373407241639579 -0.0009451852920124293 0.00043022230809935946
0.004430407627934341 9.538161851785354e-06 0.01527311988870883
-0.05549528556519209 0.0009715324300005879 -0.0034343469644977365
0.0122545910628169 0.00037901232960707576 0.015875337421392355
0.013523161295061925 0.0011883609889818403 0.0168999317781649
0.014991640336883383 0.0011929743671295068 0.017332576433652658
0.016460117460244145 0.001197587739250161 0.017765220523921765
0.01792859650206563 0.0012022011173978275 0.018197865179409523
-0.05636508561518472 0.0013117400172821259 -0.005391772061554889
0.027195803796484605 0.0015742551572563435 0.019227014575618595
0.028489827292553935 0.0023856373166485922 0.020257321159134645
0.036114106714011815 0.003559846780698539 0.021451489806149526
0.037582582878142215 0.003564460149805715 0.02188413361380931
0.045350385371466934 0.003927896583123092 0.022475100653529756
0.046675336545269785 0.00474328297693577 0.023510945503265268
0.05283111947097499 0.0059128038720059894 0.024272533077015213
0.05617504921806567 0.006258435181543454 0.02356370830544635
0.05926879830757971 0.008233542513138736 0.024065000742462317
-0.06380144668158275 0.008997161668599651 -0.013246172448861282
-0.06498803575567158 0.010143690881844691 -0.014647870039116995
-0.06437569321738823 0.010472926484970058 -0.016154330214609047
0.06305141190596518 0.011696196998409403 0.02202312700999387
-0.06561086024198087 0.013592505229658713 -0.017987678020658038
-0.06532897315193933 0.014743647812010874 -0.018956731803254023
0.06536555893252385 0.015154238144708121 0.01954861229595911
0.06564744602256542 0.01630538072706028 0.018579558513363126
0.06592933311260699 0.017456523309412386 0.01761050473076714
0.06631901551700164 0.01777326305099003 0.01604923396942859
-0.03193297233562026 -0.002757922984959471 0.008374012426178357
-0.030461992580253144 -0.002753301750562598 0.008807393844207256
-0.02899102241718962 -0.0027486805463010078 0.009240772436142797
-0.044889385932468356 -0.0016464163516523023 0.0035028913957456664
-0.043418406177101215 -0.0016417951172554845 0.003936272813774566
-0.04194743601403769 -0.001637173912993839 0.004369651405710051
-0.04047645625867061 -0.0016325526785970212 0.004803032823738951
-0.039005486095607056 -0.0016279314743353757 0.005236411415674491
-0.03753450634023994 -0.001623310239938558 0.005669792833703391
-0.0360635265848728 -0.0016186890055416847 0.006103174251732291
-0.03459255642180928 -0.0016140678012800946 0.0065365528436677756
-0.019882797237352423 -0.0015678555778525505 0.01087035571958328
-0.0184118270742889 -0.0015632343735909049 0.011303734311518765
-0.016940847318921787 -0.0015586131391940872 0.011737115729547665
-0.05343286985551868 -0.0005210460452899079 -6.80882066937949e-05
-0.05196189969245513 -0.0005164248410282624 0.00036529038524169
-0.050490919937088014 -0.0005118036066314446 0.0007986718032705897
-0.0004777617314633553 -0.00035468211930234084 0.015533594798759098
0.005688513529943179 0.0008169004104875977 0.01629641807223514
-0.057281067864833196 0.0017712855263304905 -0.003309628779779472
0.019209653035892393 0.002011589003775016 0.019226138261919545
0.020680628954338087 0.002016210226117754 0.01965951854951109
-0.058469672195655076 0.0029197619444066847 -0.004713706944261098
-0.059658276526476955 0.004068238362482879 -0.006117785108742835
0.038897060129405275 0.004377860102744213 0.022918679464205227
0.04036803988477239 0.004382481337141031 0.023352060882234127
-0.06084689044960245 0.005216714750423901 -0.007521866099317931
0.04800528530924246 0.0055586850711926705 0.024548262747645655
-0.062035504372727895 0.006365191138364923 -0.008925947089892972
0.05417155097834542 0.006730267570847437 0.025311083195028394
-0.0632241087035498 0.007513667556441117 -0.010330025254374653
0.0573958667290177 0.00789260763184374 0.025207143632446638
-0.06441271303437168 0.008662143974517367 -0.011734103418856334
0.06090254831193165 0.010208045315177883 0.024132504497318685
-0.0662251996238358 0.013265292025210262 -0.01648366171900545
0.06497394314616732 0.014829603049342055 0.02111652951671189
-0.04252153140850434 -0.0019936388623266743 0.005912395714028573
-0.041048057654204106 -0.0019890097927753314 0.006346511916333231
-0.03957457430760025 -0.001984380693088761 0.006780630944731247
-0.038101100553300016 -0.001979751623537418 0.007214747147035905
-0.03662763639130334 -0.0019751225841213027 0.007648860523247147
-0.035154162637003106 -0.00197049351456996 0.008082976725551805
-0.03368068888270287 -0.001965864445018617 0.008517092927856462
-0.02778679386550184 -0.0019473481668132453 0.010253557737075092
-0.026313329703505195 -0.00194271912739713 0.010687671113286334
-0.02483985594920496 -0.0019380900578457871 0.011121787315590992
-0.023366382194904695 -0.0019334609882944442 0.01155590351789565
-0.052552993521860825 -0.0008709896567272724 0.0019012397614930343
-0.05107951976756053 -0.0008663605871759295 0.0023353559637976917
-0.049606046013260297 -0.0008617315176245866 0.0027694721661022936
-0.04813257225896006 -0.0008571024480732437 0.003203588368406951
-0.046659098504659796 -0.0008524733785219007 0.0036377045707116085
-0.01571616884896171 -0.0007552629782141551 0.012754139166922585
-0.014242695094661473 -0.0007506339086628122 0.013188255369227242
-0.012769230932664799 -0.000746004869246697 0.013622368745438485
-0.011295747586060972 -0.0007413757695601264 0.014056487773836501
-0.055217086863715986 0.0002748048966287886 6.0664820480726966e-05
0.0007748678381755691 0.0004507093889036806 0.016557066377590635
-0.05640771604357453 0.0014252284894009648 -0.0013457967443203378
0.006951607429818291 0.0016242783294325713 0.017321185824312857
0.008425081184118555 0.0016289073989839142 0.017755302026617514
0.02196917899572859 0.002825621654120758 0.02068999937616034
0.02961938754551975 0.004003819649133433 0.02188823361214054
0.031092860340589654 0.004008448715671242 0.022322349531835872
0.04169001831744204 0.00519590485581356 0.024388816737644037
0.049340222071081435 0.006374102835758622 0.025587049560577613
-0.06593273989013915 0.010628617261713769 -0.012597486436635053
0.06254222538538848 0.012186398673651844 0.024198249540439642
-0.06684052449555597 0.01293409351680952 -0.014976293363932414
0.06458138828857217 0.014501133067850225 0.02268767501775154
-0.034240748991060166 -0.0023261923729902545 0.010067546000010086
-0.048717131983662926 -0.0012155538081450867 0.00474503650347935
-0.04724116423042954 -0.0012109169034392187 0.005179887490059709
-0.04576519647719621 -0.0012062799987333506 0.005614738476640124
-0.04428922872396282 -0.001201643094027538 0.006049589463220539
-0.022149674056247737 -0.0011320894028990502 0.012572365566300203
-0.05433768927225821 -7.709375479442171e-05 0.002031638578617767
-0.01005858952913169 6.201359732738165e-05 0.015077187958683624
-0.05939160951987352 0.0033753816730395236 -0.0026297444772302447
0.023262724708828175 0.0036350487765408612 0.02172195203223587
-0.06058424436416149 0.004527752500778193 -0.004038583790163863
0.03240186797409529 0.00481987794927452 0.02335707075580251
0.043016984747977924 0.006009344044795029 0.025427042161605518
-0.046345716096129363 -0.0015686257383322744 0.007160950586257764
-0.04486724475165926 -0.0015639809683367645 0.007596539183207296
-0.04338878299949275 -0.0015593362284763712 0.008032124954063469
-0.04191031165502265 -0.0015546914584808058 0.008467713551013
-0.04043184990285614 -0.001550046718620468 0.008903299321869174
-0.03895337855838604 -0.0015454019486249027 0.009338887918818706
-0.03747490721391594 -0.0015407571786293928 0.009774476515768238
-0.03599644546174943 -0.0015361124387689995 0.01021006228662441
-0.03303951236511282 -0.0015268229289130963 0.011081236654430116
-0.03156104102064272 -0.0015221781589175865 0.011516825251379648
-0.03008257926847621 -0.0015175334190571932 0.01195241102223582
-0.02860410792400611 -0.0015128886490616278 0.012387999619185353
-0.0271256461718396 -0.00150824390920129 0.012823585390041525
-0.05345425157503078 -0.0004328867857446572 0.004007376311300048
-0.05197578023056068 -0.0004282420157490918 0.00444296490824958
-0.05049730888609058 -0.00042359724575358193 0.0048785535051991125
-0.020927968327420887 -0.00033070211705932273 0.01359030000934952
-0.05612738261282546 0.000716786446694373 0.002160565001097625
-0.008816424289728952 0.0008654186947944509 0.01609936336426898
-0.007337952945258852 0.0008700634647900163 0.016534951961218514
-0.00585949119309237 0.000874708204650354 0.016970537732074686
-0.0043810198486222696 0.0008793529746459194 0.01740612632902422
-0.05732204230615012 0.001871104449128913 0.0007493422878446787
0.0018166484034928265 0.002056894736652659 0.018172838122238855
-0.05851671159177832 0.0030254224214283365 -0.0006618832515015716
0.00949278800007805 0.003239081268654964 0.01937513851240308
0.010971259344548151 0.0032437260386505296 0.01981072710935261
0.024561264654791387 0.004444491588857902 0.022755376093823554
-0.06210070985635935 0.0064883763684617235 -0.004895557043447074
-0.06329536954968398 0.007642694370896319 -0.006306779756699965
0.05054661702079881 0.008000340696227515 0.027233451773426565
-0.06449003883531215 0.008797012343195743 -0.007718005296046271
0.05526582352074742 0.009173237718373972 0.027564577795785028
-0.06568470812094038 0.00995133031549511 -0.009129230835392521
0.058506558676225895 0.010341489970524809 0.027460115221194015
0.0602688320795379 0.011505097482815307 0.026920066875746773
0.062031095890546284 0.012668704964970634 0.026380015704206228
-0.0677902350410513 0.013418929032524063 -0.012927316030388492
0.06407717135270016 0.014991275219556066 0.024864330416362268
0.06612325563571203 0.01731392063785192 0.023348579002811454
-0.04840820798956866 -0.0019395434643911247 0.008274263440801621
-0.04692724264616541 -0.0019348908592410896 0.008710586822026911
-0.045446277302762184 -0.0019302382540910545 0.009146910203252201
-0.04396532155166255 -0.0019255856790761916 0.009583230758384131
-0.04248434661595571 -0.0019209330437909289 0.010019556965702836
-0.041003390864856076 -0.001916280468776066 0.010455877520834711
-0.03952241592914926 -0.0019116278334908032 0.010892203728153416
-0.03804145058574604 -0.0019069752283407126 0.011328527109378705
-0.036560494834646406 -0.0019023226533258497 0.011764847664510636
-0.035079519898939565 -0.001897670018040587 0.012201173871829285
-0.03359856414783993 -0.001893017443025724 0.012637494426961215
-0.03211758921213312 -0.0018883648077404613 0.013073820634279865
-0.05256682321873635 -0.0007925834975606727 0.005988010564778823
-0.051085857875333124 -0.0007879308924105821 0.006424333946004113
-0.04960489253192987 -0.000783278287260547 0.0068606573272294025
-0.04812392718852668 -0.0007786256821104565 0.007296980708454692
-0.025909456629781807 -0.0007088366349947695 0.013841828600740735
-0.05524447310450084 0.00035902907441981435 0.004138081069981314
-0.019701314455126934 0.00047069156788609456 0.014609839393295021
-0.0031263964634878905 0.0016828632006630206 0.01843205055481284
0.0030817457111669833 0.00286239140354394 0.01920006134736707
-0.06031548325412986 0.00382324716437199 -0.0005391267776675424
0.012251808980324741 0.004051224786589758 0.02084071607627852
0.013732778160649411 0.004055877403793928 0.021277040587941165
0.0152137425448223 0.0040605300059304295 0.02171336368655713
0.0258647778719958 0.005254016015220908 0.023790343774959255
0.03355388539005391 0.006438196823251918 0.02499467794873872
0.03503485073345715 0.006442849428401953 0.025431001329964065
0.044204914002614906 0.007631682811447771 0.027071656058875515
0.05189403111297662 0.008815863649613953 0.028275993058748394
-0.06721129052264821 0.01192175606970658 -0.009998040539261177
0.06368220134286703 0.014653095960778073 0.02644377693988398
-0.04602619645032496 -0.002300462241120682 0.01070036818421527
-0.04454273710798862 -0.002295801800816122 0.011137426349716317
-0.04305927776565227 -0.0022911413605115616 0.011574484515217365
-0.0415758184233159 -0.0022864809202070013 0.012011542680718412
-0.04009234948867596 -0.0022818204497672134 0.012448603672312819
-0.038608880554035996 -0.0022771599793274255 0.012885664663907281
-0.051675293461035526 -0.0011562312403430308 0.007973201347727221
-0.05019182452639559 -0.001151570769903243 0.008410262339321628
-0.03090681470680856 -0.001090984925403049 0.014092029795208794
-0.029423355364472187 -0.0010863244850984888 0.014529087960709841
-0.05435745260246619 -2.6792986858037438e-06 0.006120156494427986
-0.024688208201917472 9.052968821676721e-05 0.014861336761009258
-0.05703962133620041 0.0011508726128362512 0.0042671088150353365
-0.01846959210472282 0.0012720443319718666 0.015630646552903027
-0.016986132762386447 0.0012767047722764269 0.01606770471840413
-0.05823832113529473 0.0023090849947980385 0.002851122127237149
-0.0018667510188700442 0.00248618208799406 0.019459366329397598
-0.05943701211353106 0.0034673725404702482 0.0014350693137321624
0.004351873899182596 0.0036677718954594707 0.020228609995584623
0.01650433312110486 0.004867928318513903 0.022746154145138642
0.01798779534113229 0.00487258876785901 0.02318321315846772
-0.06183440211941607 0.0057837973345290505 -0.0013969012357708532
0.027173329163769314 0.006063424289209696 0.024826638998754258
-0.06303311151081398 0.00694200968635561 -0.0028128907496624
0.03635886586409741 0.007254259819600928 0.026470065686868882
0.045544400645964794 0.008445095343965092 0.0281134918097648
0.047027859988301154 0.008449755784269652 0.02855054997526585
-0.06543053029360976 0.009258434390008785 -0.005644869777445494
0.05324646649319224 0.009631270397889469 0.029319856941066313
0.0564981543134106 0.010803464130900164 0.029215047575864628
-0.06874185173448905 0.01389601955200609 -0.010871821662750636
0.06562403629000987 0.017804078490001984 0.025526706796067
-0.049293772512925965 -0.0015190391042806395 0.010401026779915501
-0.047807819171656496 -0.0015143708288216096 0.010838819729692306
-0.03740609782125212 -0.0014816927499320398 0.01390338450859685
-0.035920144479982624 -0.0014770244744729544 0.014341177458373655
-0.03443418154640954 -0.0014723561688786968 0.01477897323424382
-0.053466423028203064 -0.00036821615881144076 0.008107065140057657
-0.056153110609907075 0.000787275092252071 0.006250899276070032
-0.02346198362512092 0.0008899776345149268 0.015882389388653717
-0.015746949856420528 0.0020781469644680084 0.017090788303570525
0.005626959822968874 0.004473158816615974 0.021258766410791552
0.01928585702451055 0.00568007654169711 0.024218283151310305
0.03768784755136635 0.008065751803751131 0.02751067168505633
-0.0645581359567513 0.00890846727310779 -0.0036777461620859375
-0.06695957566070959 0.011228786416558556 -0.0065144835122275535
-0.06816028189567899 0.012389021167061975 -0.007932916899958509
0.059632261807105166 0.012790494604384084 0.029717440694262576
0.06523108456498579 0.017463810909904787 0.027108525120697058
-0.04839171799145539 -0.0018904770723012776 0.012396612842481336
-0.04690325146664559 -0.0018858009014172672 0.012835146228720673
-0.04541480412644297 -0.001881124790803712 0.013273673962773236
-0.04392633760163317 -0.0018764486199197017 0.013712207349012517
-0.04243788066912699 -0.001871772479170919 0.014150737909158495
-0.04094943332892434 -0.0018670963685573638 0.014589265643211058
-0.03946096680411457 -0.0018624201976733534 0.01502779902945034
-0.05316321290696857 -0.0011157321873931925 0.011655972310144591
-0.05167225238322565 -0.0011110481813546569 0.01209524048065963
-0.05018130145178634 -0.0011063642054514045 0.012534505825081366
-0.03825367481566447 -0.0010688923379546522 0.016048634232641634
-0.05436797766086923 4.832174879176865e-05 0.01023283824748178
-0.05257136216902819 -0.0007377225621746364 0.010098803885939422
-0.05108290523652198 -0.0007330464214258536 0.010537334446085345
-0.03322142204644751 -0.0006769327324404606 0.015799701167836577
-0.03200365613545764 0.00011858156815230947 0.016821835370367466
-0.05706369334620917 0.0012076917090734773 0.008370438840397343
-0.05526254059323685 0.00041978325241120995 0.008239459363836521
-0.02847031580812512 0.0005039537858892995 0.016133009446463398
-0.02724459797899373 0.001301371468220902 0.017155768337578203
-0.058268448507806186 0.002371745675393666 0.00694730760382789
-0.022230771050458065 0.0016894412511221923 0.016904911584849636
-0.02099457929878687 0.0024888453743279193 0.01792896947530398
-0.05947318525624168 0.0035358748355594494 0.005524113067645053
-0.0145027693602848 0.002879604857103868 0.018115344283381796
-0.013014312427778618 0.0028842809978526507 0.018553874843527773
-0.011525855495272408 0.0028889571386014334 0.018992405403673696
-0.010271689411100515 0.003690446401990455 0.02001990334668141
-0.008780728887357592 0.003695130408028935 0.020459171517196506
-0.06035922683263856 0.0039014273659941368 0.0035386739905668985
-0.0008209399400866957 0.0040884730260806745 0.021079899222497755
0.00045119165572793385 0.004891972265942568 0.022110903343765698
-0.061561966737502555 0.005063534127483116 0.00211792332822347
0.0069070617500865406 0.00527863663206235 0.022290331921029916
0.008192161267374126 0.006084130147952838 0.023323369825913154
-0.06276467863690144 0.0062257161129529726 0.00069711219235985
0.02058891342036759 0.006487580006938887 0.025254824690969735
0.021896964145011327 0.007295099162378804 0.026292837664402324
0.02338791872152604 0.007299783149733452 0.026732104082739516
-0.0642922066740754 0.008192165834415344 -0.00016848083043274897
0.028316916069771242 0.007677743615933985 0.02646525767211122
0.029805373002277438 0.007682419756682768 0.026903788232257198
0.03112888699024971 0.008491941027524819 0.027944570169233907
0.03902183642110872 0.008877259518480896 0.028552752903981904
0.04051029335361492 0.008881935659229678 0.028991283464127826
-0.06549696183567247 0.009356219800735588 -0.0015916120670022016
0.041851764220156684 0.009693466879422852 0.030035569035880838
0.04823829504378818 0.010072099265211354 0.03020171616266004
0.04959273383180286 0.010885624761433232 0.031248035518028405
0.05435181040142831 0.012068489855347364 0.03158190518562565
0.05774048910727142 0.012433797108025169 0.030868396019527178
-0.06969538262528152 0.014365214777970259 -0.008809675183511834
0.061288837027568294 0.014776715193998313 0.02978101693542401
0.06306301098771672 0.015948174236984858 0.029237327393372425
-0.04778223104407012 -0.0014789597517919084 0.01497650460693345
-0.04628878611369763 -0.0014742679407340753 0.015416504735630887
-0.03704137564474097 -0.00027534874765655637 0.017070944656571108
-0.05616958115057652 0.0008343503894492343 0.01036540304047262
-0.02601386414653098 0.0020988800448423772 0.018179936323724333
-0.00751907121408274 0.004496643207016704 0.0214888766391248
0.009482248782527902 0.006889639334152431 0.024357877299347963
-0.06703054523534921 0.011328511106556527 -0.002464349638566121
0.05095217020998738 0.011699165958099333 0.03229582726804148
-0.06823729724051775 0.012494587471553464 -0.0038899247489749267
-0.0694440772511514 0.01366058861256969 -0.005315439385863596
-0.051070754951750646 -0.00070150949670017 0.014674565203954548
-0.04957479683783789 -0.0006968097902174675 0.015115305769114518
-0.04508695127301032 -0.0006827107611749317 0.016437518986314237
-0.043591012343704716 -0.0006780111149626289 0.016878253899287432
-0.05527144726233571 0.0004570394964522051 0.012365194514706745
-0.035824106889112695 0.0005181353191049398 0.018094787948665647
-0.034328158367503525 0.0005228349954524703 0.0185355256877322
-0.031049080064577572 0.0017049575943231532 0.018429783220297147
-0.020003133904828302 0.004083151373145466 0.019540632449667028
-0.06160254961939221 0.005124283561050158 0.006212746505861122
-0.006252415950638024 0.0052981717064486955 0.022520054155698077
-0.004756467429028827 0.00530287138279617 0.02296079189476463
0.0015144895039539696 0.00649431814051632 0.023736588205076237
0.01077733388785157 0.007695164220796247 0.025393857167427647
0.01227328240946074 0.007699863897143777 0.0258345949064942
0.013769232849530633 0.00770456357951832 0.02627533321077946
0.024528031510419573 0.008910109354226814 0.028373341607853486
0.03379089622593942 0.010111030634379403 0.03003054783581005
0.055595672888964165 0.013694845423945057 0.033239346119171176
0.058874723186425004 0.014876892798834973 0.03313366412525626
0.0606578249622767 0.016054240497377414 0.03258724439227473
0.06244094515128987 0.017231663389765395 0.03204076135967976
-0.054369254855163696 7.590941777363414e-05 0.014369686663872616
