# .PCD v0.7 - Point Cloud Data file format
VERSION 0.7
FIELDS x y z
SIZE 4 4 4
TYPE F F F
COUNT 1 1 1
WIDTH 597
HEIGHT 1
VIEWPOINT 0 0 0 1 0 0 0
POINTS 597
DATA ascii
-0.05118497961404047 -0.004946796783171281 -0.005106790095891989
-0.049807065191340295 -0.004932944009844176 -0.005291435795506172
-0.048429160679554474 -0.004919091336155812 -0.005476080167020669
-0.04705123634593995 -0.004905238463189965 -0.005660727194734483
-0.045673321923239786 -0.004891385689862804 -0.005845372894348666
-0.04429540750053961 -0.004877532916535698 -0.006030018593962794
-0.052692522904743924 -0.0038984913314802916 -0.005809810071859933
-0.051314608482043764 -0.003884638558153186 -0.005994455771474061
-0.04993669405934359 -0.0038707857848260807 -0.006179101471088244
-0.04855878954755777 -0.003856933111137717 -0.0063637458426027416
-0.04718086521394324 -0.00384308023817187 -0.006548392870316555
-0.04580295079124308 -0.003829227464844709 -0.006733038569930738
-0.044425036368542906 -0.0038153746915176034 -0.006917684269544866
-0.05282215177274721 -0.0028363331064621966 -0.0066974757474420055
-0.05144423735004705 -0.002822480333135091 -0.006882121447056133
-0.050066322927346876 -0.0028086275598079857 -0.007066767146670316
-0.048688418415561055 -0.002794774886119622 -0.007251411518184814
-0.04731049408194653 -0.002780922013153775 -0.007436058545898627
-0.04593257965924637 -0.002767069239826614 -0.0076207042455128104
-0.049750232773699304 -0.0051060102730347 -0.003832195094028046
-0.048369741513266964 -0.005092131593636473 -0.0040171860995610875
-0.04698925025283465 -0.005078252914238246 -0.004202177105094129
-0.04560874908148796 -0.005064374135201277 -0.004387169438726801
-0.04422824791014128 -0.005050495356164364 -0.004572161772359529
-0.04284775664970894 -0.005036616676766137 -0.00475715277789257
-0.05264109649242486 -0.004069623164378033 -0.004351537454005128
-0.042977627936655494 -0.00397247210967433 -0.005646478477035366
-0.05415145903980374 -0.0030193572766844534 -0.005055872147614882
-0.04310749922360203 -0.002908327542582523 -0.0065358041761781616
-0.054281330326750296 -0.0019552127095926464 -0.005945197846757733
-0.04461786177098093 -0.0018580616548889428 -0.007240138869787971
-0.053030710353264496 -0.0008771894631026123 -0.00701951455143357
-0.05165020918191782 -0.0008633106840656435 -0.0072045068850662974
-0.05026971792148549 -0.0008494320046674719 -0.007389497890599284
-0.04888922666105315 -0.0008355533252692449 -0.007574488896132325
-0.046926778734734 -0.0052551635520230455 -0.002740372143491987
-0.05115114304401289 -0.004409721396253563 -0.0016108440446213068
-0.049765488197201876 -0.0043957908050744066 -0.0017965269900917513
-0.04837983335039088 -0.00438186021389525 -0.001982209935562196
-0.04560852365676887 -0.004353999031536937 -0.0023535758265030293
-0.04422286880995788 -0.0043400684403577805 -0.002539258771973474
-0.04283721396314687 -0.004326137849178624 -0.0027249417174439183
-0.05405280886246795 -0.003369465327372645 -0.0021321238999447156
-0.052589194566024795 -0.004244651283651091 -0.0028900086360889587
-0.051206116556945964 -0.004230746598543 -0.0030753462756405447
-0.04152459031522277 -0.004133414002064129 -0.004372707096302164
-0.04014152221705828 -0.004119509416594835 -0.004558043407754064
-0.03881059563663258 -0.0032162287247632926 -0.0041746376282192355
-0.037424950700735926 -0.0032022982332228778 -0.004360319245589994
-0.03603929585392492 -0.0031883676420437213 -0.004546002191060439
-0.05556881983411201 -0.0023152786673126258 -0.002839086700738569
-0.05410238628099346 -0.0031924250595936066 -0.0035956567192408917
-0.04165470402111258 -0.0030672830928986095 -0.005263692819005683
-0.040271635922948086 -0.0030533785074293163 -0.005449029130457583
-0.03894095176146564 -0.002148111473524117 -0.005067283374483533
-0.037555306825568985 -0.002134180981983702 -0.005252964991854292
-0.036169651978757975 -0.0021202503908045456 -0.0054386479373247365
-0.055615558174133384 -0.0021401986362586944 -0.004301307458592252
-0.04178481772700238 -0.002001152183733146 -0.0061546785417092575
-0.040401749628837885 -0.0019872475982638527 -0.006340014853161158
-0.0390713078862987 -0.0010799942222849412 -0.005959929120747887
-0.037685662950402044 -0.0010660637307445264 -0.006145610738118645
-0.05721518693058912 -0.00019297475601343095 -0.00443869524779672
-0.05574567188002319 -0.0010740677270931753 -0.005192293181295826
-0.04329800944197103 -0.0009489259596757171 -0.006860326624861246
-0.041972983615668105 -3.973825304276479e-05 -0.006481207647971554
-0.040587328768857095 -2.580766186366379e-05 -0.006666890593441999
-0.05587578558591298 -7.936817927656215e-06 -0.006083278903999345
-0.05449272739866286 5.967667902895268e-06 -0.0062686138873515596
-0.047577347264183 7.549099380443902e-05 -0.007195300757009748
-0.046194269255104156 8.939567891247391e-05 -0.007380638396561334
-0.05734554305542218 0.0008751424952258002 -0.005331340994061073
-0.04487464943412317 0.0010005178158381534 -0.0070024875032950185
-0.05747589918025523 0.0019432597464649204 -0.006223986740325371
-0.056090244333444235 0.001957190337644077 -0.006409669685795816
-0.05470458948663324 0.0019711209288232334 -0.00659535263126626
-0.053239763095473805 0.0010860032621763938 -0.00734493724960672
-0.05193327979301123 0.001998982111181491 -0.006966718522207149
-0.05054762494620022 0.0020129127023606475 -0.007152401467677594
-0.049161970099389225 0.002026843293539804 -0.007338084413148038
-0.047776315252578215 0.0020407738847189605 -0.007523767358618427
-0.052614515508621604 -0.0035365982794596795 -0.0008512341097566267
-0.04150863229953326 -0.003424946002541507 -0.002339464105170108
-0.0401204006149901 -0.0034109895052912287 -0.002525492356559411
-0.03873216893044694 -0.003397033008041006 -0.002711520607948714
-0.05552158733239859 -0.0024944077802860343 -0.0013734820487034116
-0.03469805259876506 -0.002285059723699856 -0.0041639137881410715
-0.033309820914221897 -0.0022711032264496334 -0.0043499420395303745
-0.05704043679543793 -0.0014381843860900578 -0.002081822086099472
-0.03482866046634688 -0.0012148797326149152 -0.0050582834050261205
-0.03344042878180372 -0.0012009232353646926 -0.0052443116564154235
-0.032052187186346205 -0.0011869666384756727 -0.005430341235904412
-0.05717103533921425 -0.0003680807927771701 -0.0029761278559245485
-0.036347500605580715 -0.00015873273619104733 -0.005766559595362208
-0.0349592590101232 -0.00014477613930202748 -0.005952589174851197
-0.03357102732558004 -0.00013081964205180485 -0.0061386174262405
-0.058689865567533715 0.000688066303285384 -0.0036844053743603222
-0.0392545724293577 0.0008834577629825424 -0.006288807534308993
-0.058820464111310033 0.0017581698965982717 -0.004578711144185343
-0.0435498660267635 0.0019116918645447067 -0.0066250285499661055
-0.04699813766566093 -0.0036656281968995286 -0.0001269033875682668
-0.045607329143385604 -0.0036516457935781843 -0.0003132769448764283
-0.044216500799281584 -0.0036376631909793566 -0.0004996531583840169
-0.054083060883414524 -0.0026634506766746724 -9.099608201451614e-05
-0.03739326941788149 -0.002495660940069866 -0.0023274907226097374
-0.03600245098469182 -0.00248167843710978 -0.0025138656080175847
-0.03461164246241649 -0.0024676960337884357 -0.0027002391653258018
-0.03322082402922682 -0.0024537135308283498 -0.002886614050733649
-0.03196084655875671 -0.0013676410924817195 -0.0039689547295272964
-0.03057002812556704 -0.0013536585895216335 -0.004155329614935144
-0.029179209692377365 -0.0013396760865615476 -0.004341704500342991
-0.02778840117010205 -0.0013256936832401478 -0.0045280780576511526
-0.026397582736912378 -0.0013117111802800618 -0.004714452943059055
-0.030700869088286606 -0.00028156865413508925 -0.005051295408320944
-0.029310050655096932 -0.0002675861511750033 -0.005237670293728791
-0.02791924213282162 -0.0002536037478536035 -0.005424043851036953
-0.026528423699631945 -0.00023962124489351755 -0.0056104187364448554
-0.02513760526644227 -0.0002256387419334871 -0.005796793621852703
-0.05864803848403338 0.0005109481180155528 -0.002219833981108088
-0.032222537808001356 0.0007766151760634776 -0.005760950163358924
-0.030831719374811686 0.0007905976790235636 -0.005947325048766772
-0.029440900941622012 0.0008045801819836496 -0.006133699934174619
-0.0280500924193467 0.0008185625853050493 -0.0063200734914827805
-0.026659273986157025 0.0008325450882651353 -0.006506448376890683
-0.06016969787994264 0.0015690555504420112 -0.0029294248890860963
-0.037916642592565275 0.0017927751992484198 -0.005911417743213021
-0.03652582415937561 0.0018067577022085057 -0.006097792628620868
-0.03513501563710028 0.00182074010552985 -0.006284166185929085
-0.0337441972039106 0.001834722608489936 -0.006470541071336933
-0.032353378770720934 0.001848705111450022 -0.00665691595674478
-0.030962560337531256 0.0018626876144101079 -0.006843290842152627
-0.029571741904341583 0.0018766701173701938 -0.007029665727560475
-0.05124547150452355 -0.0028224822345318534 0.001007460319492004
-0.049852086144516056 -0.0028084739251393875 0.000820741456264984
-0.04845869087359424 -0.0027944655161082355 0.0006340212649382782
-0.042885099878992555 -0.002738431780344719 -0.00011286082846828638
-0.04149170460807071 -0.002724423371313567 -0.0002995810197950477
-0.04009830933714889 -0.0027104149622823592 -0.0004863012111217535
-0.03870491406622706 -0.002696406553251207 -0.0006730214024484593
-0.03731150888439087 -0.002682398044581258 -0.0008597429218749064
-0.055556759933671734 -0.0017903548860319085 0.0006699325575652559
-0.03186902050617187 -0.0015522117332242846 -0.002504313351188392
-0.030475625235250034 -0.001538203324193077 -0.0026910335425150977
-0.0290822299643282 -0.001524194915161925 -0.0028777537338418036
-0.02768883469340637 -0.0015101865061307174 -0.0030644739251685094
-0.026295439422484537 -0.0014961780970995098 -0.0032511941164952707
-0.05708123858625639 -0.0007302870176028042 -4.097306805456169e-05
-0.02503312753322553 -0.00040809341060810134 -0.0043355401247685
-0.023639732262303696 -0.00039408500157689375 -0.004522260316095206
-0.058605717238841046 0.00032978085082624453 -0.0007518786936743793
-0.023770815643966523 0.0006799912758833626 -0.005419886133041785
-0.06013019589142571 0.0013898487192553488 -0.0014627843192942525
-0.02529529429655118 0.0017400591443124114 -0.006130791758661658
-0.023901899025629347 0.001754067553343619 -0.006317511949988364
-0.02821317754386318 0.002786195001482361 -0.0066550410400147975
-0.026819782272941347 0.0028002034105135687 -0.006841761231341559
-0.025426387002019515 0.0028142118195447208 -0.007028481422668265
-0.024032991731097682 0.0028282202285759284 -0.00721520161399497
-0.05271635129810537 -0.0019513468798916245 0.0017697036767136964
-0.035964636439685685 -0.0017829346004705204 -0.0004750889307317263
-0.03456866433103169 -0.0017689002853682467 -0.0006621544279773461
-0.033172682311463336 -0.0017548658706272313 -0.0008492212533225962
-0.031776700291895 -0.001740831455886216 -0.0010362880786678463
-0.030380728183241005 -0.0017267971407839422 -0.0012233535759134662
-0.02492815563831677 -0.0005945971612020817 -0.0028709027335028225
-0.02353217361874842 -0.0005805627464610663 -0.003057969558848128
-0.02226753663450602 0.0005096105859471733 -0.004144384743661023
-0.020871554614937678 0.0005236450006881888 -0.004331451569006273
-0.01947558250628368 0.000537679315790518 -0.0045185170662518925
-0.018079600486715336 0.0005517137305315334 -0.004705583891597143
-0.016683618467146992 0.0005657481452725488 -0.004892650716942448
-0.015287646358493001 0.0005797824603748225 -0.0050797162141880126
-0.01389167424983901 0.0005938167754770962 -0.005266781711433577
-0.0223988624351121 0.0015856732054810863 -0.005043670584168325
-0.021002880415543757 0.0015997076202221017 -0.005230737409513575
-0.01960690830688976 0.0016137419353244309 -0.005417802906759195
-0.018210926287321415 0.0016277763500654463 -0.005604869732104445
-0.01681494426775307 0.0016418107648064617 -0.0057919365574497506
-0.01541897215909908 0.0016558450799087354 -0.005979002054695315
-0.01402300005044509 0.0016698793950110091 -0.006166067551940879
-0.02253018823571818 0.002661735825014999 -0.005942956424675627
-0.021134206216149837 0.0026757702397560146 -0.006130023250020877
-0.01973823410749584 0.002689804554858344 -0.006317088747266497
-0.018342252087927495 0.002703838969599359 -0.006504155572611747
-0.01694627006835915 0.0027178733843403746 -0.006691222397957053
-0.01555029795970516 0.0027319076994426483 -0.006878287895202617
-0.01415432585105117 0.002745942014544922 -0.0070653533924481815
-0.04706803315981547 -0.002088022875060269 0.0024966664949583883
-0.045669474302514966 -0.002073962554248132 0.002309254363694224
-0.04427091544521448 -0.002059902233435995 0.0021218422324301156
-0.040075238873312956 -0.0020177212709996395 0.0015596058386376788
-0.05419239507875849 -0.0010801990201024236 0.0025327161120512476
-0.029018365380092472 -0.0008271135444005151 -0.0008406982664041496
-0.027619806522791963 -0.0008130532235883781 -0.0010281103976682582
-0.02622124766549146 -0.000798992902776241 -0.0012155225289324223
-0.02482268880819095 -0.000784932581964104 -0.001402934660196531
-0.023424139861804808 -0.0007708723607907642 -0.0015903454633610092
-0.0220255810045043 -0.0007568120399786271 -0.0017777575946251178
-0.05712107110199448 -3.0270600480275522e-05 0.002006593182411809
-0.022157149224053634 0.0003212369216290534 -0.0026787034586931435
-0.02075859036675313 0.0003352972424411904 -0.0028661155899573076
-0.019360031509452622 0.00034935756325327194 -0.0030535277212214162
-0.01796147265215212 0.000363417884065409 -0.0032409398524855804
-0.016562913794851617 0.000377478204877546 -0.003428351983749689
-0.015164364848465468 0.00039153842605094136 -0.0036157627869141673
-0.013765805991164958 0.0004055987468630229 -0.003803174918178276
-0.010968688276563953 0.00043371938848729696 -0.004177999180706549
-0.00957012941926345 0.0004477797092993785 -0.004365411311970713
-0.008171580472877294 0.00046183993047277383 -0.004552822115135136
-0.05865119817884433 0.001033718040315157 0.0012930594496078918
-0.011100256496113292 0.0015117683500948664 -0.00507894504477463
-0.00970169763881279 0.001525828670906948 -0.005266357176038794
-0.008303148692426633 0.0015398888920803433 -0.005453767979203217
-0.006904589835126131 0.0015539492128924803 -0.005641180110467381
-0.012630392896768646 0.0025758333886624074 -0.00579254262463863
-0.011231834039468137 0.0025898937094745444 -0.005979954755902739
-0.009833275182167634 0.002603954030286626 -0.006167366887166903
-0.008434726235781478 0.0026180142514600213 -0.006354777690331326
-0.05133836468609454 -0.0012470848271189383 0.0036356623060094795
-0.04993722899106187 -0.0012329986002357352 0.003447904868826457
-0.04853610320694357 -0.0012189124729912182 0.0032601487597431755
-0.04293154060498419 -0.0011625673661808666 0.002509116354811769
-0.04153040490995154 -0.0011484811392976635 0.002321358917628802
-0.038728133519886215 -0.0011203086855312572 0.0019458440432627566
-0.03732699782485355 -0.0011062224586479985 0.0017580866060797895
-0.03592585221890653 -0.0010921361321260536 0.001570327840797081
-0.034524716523873865 -0.0010780499052428505 0.001382570403614114
-0.0331235808288412 -0.0010639636783595918 0.0011948129664310914
-0.031722445133808536 -0.0010498774514763887 0.0010070555292480687
-0.030321309438775874 -0.0010357912245931855 0.0008192980920651016
-0.028920163832828853 -0.0010217048980712407 0.0006315393267823932
-0.05567358240968512 -0.00020930820408726625 0.0032963287299296873
-0.02064515039021111 0.00014284786654816806 -0.0013976125120441218
-0.019244024606092803 0.00015693399379268502 -0.0015853686211274032
-0.01784287900014578 0.00017102032031462988 -0.0017731273864101116
-0.01644174330511312 0.00018510654719783304 -0.0019608848235930787
-0.015040607610080452 0.0001991927740810362 -0.0021486422607761013
-0.013639462004133438 0.00021327910060303656 -0.0023364010260588097
-0.01223833622001513 0.00022736522784749802 -0.002524157135142091
-0.010837190614068109 0.00024145155436944288 -0.0027119159004247995
-0.009436054919035448 0.00025553778125264603 -0.0028996733376077666
-0.00803491922400278 0.0002696240081359047 -0.003087430774790789
-0.0066337835289701184 0.00028371023501910786 -0.003275188211973812
-0.005232647833937454 0.000297796461902311 -0.003462945649156779
-0.058607683672962915 0.0008426309439609203 0.002769175197706475
-0.0067656034912682225 0.001363821936472498 -0.0041778579466627
-0.005364467796235558 0.001377908163355701 -0.004365615383845667
-0.00396332219028854 0.0013919944898777015 -0.004553374149128375
-0.00549627843472815 0.0024579434670369826 -0.005268221271474471
-0.004095132828781132 0.002472029793558983 -0.00545598003675718
0.007807239813750814 -0.0019353093129597654 -0.0018792498975856442
0.00921095234651564 -0.0019211971800054406 -0.0020673526406875253
0.010614674790194813 -0.0019070849474124296 -0.0022554567118890367
0.01201838732295964 -0.0018929728144581048 -0.002443559454990918
0.013422109766638813 -0.0018788605818650383 -0.0026316635261924848
0.01482582229940364 -0.0018647484489107136 -0.0028197662692943104
0.016229542760899943 -0.0018506362362454287 -0.0030078700748759624
0.0048677517798709664 -0.0008815120327521631 -0.0024073089944717796
0.006271464312635786 -0.0008673998997978383 -0.0025954117375736607
0.007675186756314966 -0.0008532876672047718 -0.0027835158087752276
0.009078899289079793 -0.000839175534250447 -0.0029716185518771088
0.010482621732758966 -0.000825063301657436 -0.00315972262307862
0.011886334265523792 -0.0008109511687031112 -0.0033478253661805013
0.013290056709202965 -0.0007968389361100447 -0.0035359294373820682
-0.052816742484843915 -0.000378013632404417 0.004400602932648212
-0.027549827696847915 -0.00012399434247806207 0.0010147416039174573
-0.026146105253168742 -0.00010988210988499558 0.0008266375327158904
-0.024742392720403922 -9.57699769306708e-05 0.0006385347896140092
-0.0022829029979375692 0.00013002504708709006 -0.002371121052913039
-0.000879190465172746 0.00014413718004141485 -0.0025592237960148645
0.0005245319785064304 0.00015824941263442582 -0.0027473278672164314
0.0019282445112712536 0.0001723615455887506 -0.0029354306103183125
0.00333196695495043 0.0001864737781818171 -0.0031235346815198795
0.004735689398629606 0.00020058601077488358 -0.003311638752721391
0.006139401931394426 0.00021469814372920837 -0.003499741495823272
0.007543124375073606 0.00022881037632227486 -0.003687845567024839
-0.05715994305148859 0.0006616715148488606 0.004060646578863958
-0.0038186784990525934 0.0011979344602490172 -0.003087282892901
-0.0024149560553734135 0.0012120466928420837 -0.003275386964102567
-0.0010112435226085903 0.0012261588257964084 -0.0034634897072043924
0.00039247892107058605 0.0012402710583894194 -0.0036515937784059593
0.0017961914538354093 0.0012543831913437442 -0.0038396965215078405
0.0031999138975145856 0.0012684954239368107 -0.004027800592709407
0.004603636341193762 0.0012826076565298772 -0.004215904663910919
0.0074110713176377616 0.0013108320220772685 -0.004592111478214367
-0.002547009112809265 0.0022940683385970773 -0.004179652875292206
-0.0011432965800444415 0.002308180471551402 -0.004367755618394031
0.0002604258636347348 0.002322292704144413 -0.004555859689595598
0.001664138396399558 0.002336404837098738 -0.004743962432697479
0.0030678608400787344 0.0023505170696918043 -0.004932066503899046
0.007973740034303366 -0.0021390935054718674 -0.0004076249552045774
0.009380039315714697 -0.0021249553668077348 -0.0005960743323250028
0.010786338597126036 -0.002110817228143602 -0.0007845237094453728
0.012192637878537374 -0.002096679089479414 -0.0009729730865657982
0.013598937159948712 -0.0020825409508152815 -0.0011614224636862236
0.01500522653044569 -0.002068402911789835 -0.0013498705127069632
0.016411529776222768 -0.0020542647332701947 -0.001538320421067274
0.017817827075451237 -0.002040126614533788 -0.001726769532567729
0.0064351359527074214 -0.0010691472585352968 -0.0011251653598944866
0.017685522275266624 -0.0009560422289330295 -0.0026327593143780637
0.000677653261597324 -4.169172572454638e-05 -0.001277295114262833
0.0020839525430086624 -2.7553587060358264e-05 -0.0014657444913832585
0.0034902419135056408 -1.3415548034967362e-05 -0.001654192540403998
0.014740626253881974 9.968946163957382e-05 -0.00316178622926766
0.01614692949965905 0.0001138276401592142 -0.003350236137627971
-0.05430027454616646 0.0004909292527570663 0.005166299346284375
-0.02336171017694578 0.0008019681040909998 0.0010204157058345542
-0.0219554208064488 0.0008161061431164462 0.0008319676568138146
-0.020549111614123115 0.0008302443814193206 0.0006435169515937034
-0.012111325836569452 0.000915073113765541 -0.00048717798302910786
-0.010705026555158113 0.0009292112524296736 -0.0006756273601495333
-0.009298737184661135 0.0009433492914550645 -0.0008640754091702729
-0.007892437903249797 0.0009574874301192526 -0.0010525247862906428
-0.006486138621838458 0.0009716255687833852 -0.0012409741634110683
-0.005079839340427123 0.0009857637074475734 -0.0014294235405314937
-0.0036735400590157882 0.000999901846111706 -0.001617872917651919
0.008983143562771877 0.0011271449944503797 -0.0033139159836360066
0.010389442844183215 0.0011412831331145123 -0.0035023653607563765
0.011795742125594554 0.0011554212717787005 -0.003690814737876802
0.013202041407005892 0.001169559410442833 -0.0038792641149972273
0.01460833077750287 0.0011836974494682795 -0.004067712164017967
0.006038240199764601 0.0021829531027227622 -0.0038430070112054904
0.008850838762587264 0.002211229380051083 -0.004219905765446341
0.010257138043998602 0.0022253675187152155 -0.004408355142566711
0.004499645441974159 0.0032528229518873353 -0.004560483568835372
0.005905944723385497 0.003266961090551468 -0.004748932945955797
0.007312244004796829 0.003281099229215656 -0.004937382323076223
0.006599311665385417 -0.0012749435995534353 0.00034846358386653176
0.019279211604048406 -0.0011474670474780346 -0.0013506905556365245
0.0036490116208617203 -0.00021727745876026772 -0.0001815316802663003
0.005057887740005217 -0.00020311341402501348 -0.0003703263633055842
0.01914667370872605 -6.14727175756169e-05 -0.00225827651394761
0.020555550818960978 -4.7308662876444085e-05 -0.002447071329796824
-0.050020917323948144 0.00033055867222581137 0.006085028422752492
-0.048612041204804654 0.0003447227169610656 0.005896233739713208
-0.04720316508566115 0.00035888676169631983 0.005707439056673924
-0.04579428896651766 0.00037305080643157407 0.00551864437363464
-0.0443854029364598 0.00038721495080557 0.0053298483624956705
-0.04297652681731631 0.00040137899554082423 0.005141053679456387
-0.04156764078725847 0.00041554313991482017 0.004952257668317417
-0.03593212639977013 0.0004721994184945788 0.004197077608060595
-0.034523260191540985 0.00048636336359109134 0.004008284253120997
-0.03311437416148314 0.0005005275079650873 0.0038194882419820275
-0.031705498042339644 0.0005146915527003415 0.0036306935589427436
-0.030296621923196147 0.0005288555974355957 0.0034418988759034597
-0.028887735893138297 0.0005430197418095917 0.00325310286476449
-0.0035279261048979764 0.0007979729455991347 -0.00014520674234130837
-0.002119049985754483 0.0008121369903343889 -0.0003340014253805923
-0.0007101738666109858 0.0008263010350696431 -0.0005227961084198762
0.017605247397180376 0.001010433935471955 -0.0029771312378495396
0.01901412648959818 0.0010245980100987984 -0.0031659263193187237
0.02042300359983311 0.0010387620647979712 -0.0033547211351679374
-0.05578895969584448 0.0013598968231871567 0.0059326211965985975
-0.01915813104354184 0.0017281624844974752 0.001023952797078842
-0.01774925492439835 0.0017423265292327295 0.0008351581140395581
-0.014931492775197001 0.0017706547183419796 0.00045756741986130445
-0.013522616656053511 0.0017848187630772339 0.0002687727368220205
0.01606383140053165 0.0020822642007112813 -0.0036959222475013154
0.017472709501858016 0.002096428265374317 -0.0038847171961605698
0.01888158859427582 0.0021105923400011606 -0.004073512277629754
0.011704655236864453 0.003125766296769139 -0.0040371228285948635
0.01311353135600795 0.0031399303415043933 -0.004225917511634147
0.014522417386065793 0.0031540944858783893 -0.004414713522773117
0.009586887639922936 -0.0014562682065374921 0.0014472084069115376
0.010998340596798592 -0.0014420782557311718 0.0012580684179533952
0.0124098034645886 -0.0014278882052860542 0.001068927100895567
0.01382125642146425 -0.0014136982544797339 0.0008797871119374245
0.015232719289254258 -0.0013995082040346163 0.0006906457948795963
0.01664417819267852 -0.0013853181934450065 0.0005015050090616535
0.018055636105011354 -0.0013711281928193153 0.00031236435605364044
0.005219728633201644 -0.0004108575862579733 0.0011053850481135274
0.020745773597594268 -0.00025476749966402146 -0.0009751631974541097
0.022157232501018538 -0.00024057748907441168 -0.001164303983272108
0.0235686914044428 -0.0002263874784848574 -0.0013534447690900508
0.024980150506085354 -0.0002121974659024528 -0.0015425855814699685
0.0008525603026748527 0.0006346294317935985 0.0007634978422554894
0.002264013259550505 0.0006488193825999744 0.000574357853297347
0.022024442862947413 0.0008474795806737156 -0.002073613812203945
0.023435901766371676 0.0008616695912632699 -0.0022627545980218877
-0.052915660323895754 0.0011833896814372191 0.0070416019870860325
-0.05150419745610573 0.0011975797318822812 0.006852460670028204
-0.02750939808007609 0.0014388098919776993 0.003637067576742814
-0.02609793521228608 0.0014529999424227613 0.003447926259684986
-0.024686482255410425 0.0014671898932291372 0.0032587862707268433
-0.007748977396502099 0.0016374700003765619 0.0009890971065312781
-0.00633751452871209 0.001651660050821624 0.0007999557894734499
-0.004926051660922082 0.0016658501012667415 0.0006108144724156217
0.0218916625486818 0.0019354602526497344 -0.002982859794075754
0.023303121452106064 0.0019496502632392887 -0.0031720005798936968
-0.016350514508570214 0.00264038706637032 0.0012146311956473532
0.020347414007186402 0.003009327311808252 -0.003703028837189648
0.021758872910610672 0.0030235173223978618 -0.0038921696230076464
0.006796075049363387 -0.0006084875192594597 0.0023947782635199144
0.008210104843971194 -0.0005942716623820177 0.0022052929686429135
0.01952242347923997 -0.00048054400028862965 0.0006893998520193234
0.0209364621936707 -0.00046632805373630903 0.0004999133618526219
0.023764540613623597 -0.00043789615066780474 0.00012094024870917819
0.025178580120927482 -0.00042368019614436037 -6.85463477055337e-05
0.003834963581304675 0.00045312397952995687 0.001862781656980672
0.026459587273889546 0.0006805791672117034 -0.0011690027567698436
0.027873626682084287 0.0006947951207387226 -0.001358489339903568
-0.03164904187904402 0.0011876921803136709 0.0056890398978659
-0.0019542179739928667 0.001486227167514953 0.001709822143454942
-0.0005401782684706993 0.0015004431240311367 0.0015203355204782554
0.02491252533070423 0.0017563302297272099 -0.0018904222056306819
0.026326564540680674 0.0017705461812614343 -0.002079908762202376
-0.0232978357029254 0.002363031331232668 0.003641150307513108
-0.02188380590831758 0.00237724718811011 0.003451665012636107
-0.010571488264140248 0.0024909748402396348 0.0019357720288225022
-0.009157448558618081 0.0025051907967558185 0.0017462854058458155
0.024779493273689848 0.0028463736415490493 -0.0028013920581232976
0.026193532483666293 0.0028605895930832737 -0.0029908786146949917
0.03529384129423308 -0.000539377840634292 8.006237229490898e-05
0.036710459819670284 -0.0005251359581192605 -0.0001097698222205512
0.03812707636292461 -0.0005108940955319552 -0.00029960175111615195
0.03954370281709329 -0.0004966521333059637 -0.000489435008111383
0.040960319360347615 -0.0004824102707186584 -0.0006792669370069282
0.04237693590360194 -0.0004681684081313531 -0.0008690988659025289
0.04379356235777062 -0.0004539264459053616 -0.00105893212289776
0.022410990178426324 0.0004244748709871793 0.0008759235749807859
0.02666084922355794 0.0004672005534058221 0.0003064265265994015
0.02807746824454085 0.00048144244090281285 0.0001165942656788932
0.029494088752160922 0.0004956843433456259 -7.323819445653745e-05
0.030910707277598117 0.0005099262258606574 -0.00026307038897205315
0.032327326794126754 0.0005241681183395519 -0.00045290271629749856
0.03374394730174682 0.0005384100207823095 -0.0006427351764329292
0.03799380188696698 0.0005811356583635963 -0.001212231627169491
0.03941042834113566 0.0005953776205895878 -0.001402064884164722
0.040827044884389985 0.0006096194831768931 -0.0015918968130602673
0.04224366142764431 0.0006238613457641984 -0.001781728741955868
0.04366028788181299 0.0006381033079901899 -0.001971561998951099
0.045076904425067316 0.0006523451705774952 -0.0021613939278466443
0.04649352096832164 0.0006665870331648005 -0.002351225856742245
0.04791013751157597 0.0006808288957521058 -0.0025410577856377903
0.002445053777056217 0.0013170417523335476 0.002621009862924073
0.029360823600008794 0.0015876376994690133 -0.0009858042234498487
0.03077744212544599 0.0016018795819840448 -0.0011756364179653644
0.03219406164197462 0.0016161214744629393 -0.0013654687452908099
0.03361068214959469 0.0016303633769056969 -0.0015553012054262405
0.04069377973223785 0.0017015728393002805 -0.0025044628420535786
0.04211039627549218 0.0017158147018875858 -0.0026942947709491794
0.04352702272966086 0.0017300566641135773 -0.0028841280279444104
0.044943639272915184 0.0017442985267008826 -0.0030739599568399556
0.04636025581616951 0.001758540389288188 -0.0032637918857355563
0.047776872359423836 0.0017727822518754932 -0.0034536238146311016
0.049193498813592515 0.0017870242141014847 -0.0036434570716263326
-0.04868652527611504 0.0018963633570604488 0.008542344036207461
-0.047269908732860716 0.001910605219647754 0.008352512107311916
-0.04585329218960639 0.0019248470822350594 0.008162680178416315
-0.04443666573543771 0.0019390890444611064 0.007972846921421084
-0.04160343264892906 0.0019675727696356615 0.007593183063629938
-0.04018681610567473 0.001981814632222967 0.007403351134734393
-0.038770189651506054 0.0019960565944489583 0.007213517877739162
-0.03735357310825173 0.0020102984570362636 0.0070236859488436165
-0.03593694665408305 0.0020245404192623107 0.00683385269184833
-0.03452033011082872 0.002038782281849616 0.006644020762952785
-0.0331037135675744 0.0020530241444368658 0.0064541888340572395
-0.030270470570151392 0.002081507969250218 0.006074523648166408
-0.028853854026897066 0.002095749831837468 0.0058846917192708625
-0.02743723748364274 0.002109991694424773 0.005694859790375262
-0.004771323237001756 0.002337861994015089 0.0026575422875478316
-0.0033546967828330734 0.002352103956241136 0.0024677090305526006
0.027810928616431085 0.002665425550921696 -0.0017086016393678127
0.029227549124051157 0.0026796674533645093 -0.0018984340995032434
0.030644167649488352 0.0026939093358795407 -0.002088266294018759
0.04339374825370322 0.0028220864180090732 -0.003796757903997805
0.04481036479695755 0.0028363282805963785 -0.00398658983289335
0.04622698134021187 0.002850570143183684 -0.004176421761788951
0.0476435978834662 0.002864812005770989 -0.004366253690684496
0.02767766346427896 0.003757378907045139 -0.002621167668361124
0.029094283971899032 0.003771620809487952 -0.0028110001284965547
0.04609371618805975 0.003942523499307127 -0.005088987790782262
0.03999460623402166 -0.0009388332143082101 0.002468480590719302
0.0369305154337269 -0.0007442919686889149 0.0013682185654717571
0.038349708814713376 -0.0007300242000305435 0.0011780413306573534
0.03976891210661422 -0.0007157563317333748 0.0009878627677432084
0.04118811539851505 -0.0007014884634362617 0.0007976842048291188
0.04260730877950154 -0.0006872206947778903 0.0006075069700147151
0.0327519575780009 8.56239740492093e-05 0.0025052135931494246
0.0341737377076339 9.991774841744405e-05 0.0023146897243164766
0.035595517837266895 0.00011421152278567881 0.002124165855483473
0.04412619663288201 0.0001999741490673057 0.0009810229081055333
0.045547976762515006 0.00021426792343548495 0.0007904990392725852
0.04696975689214802 0.0002285616978037197 0.0005999751704395817
0.00702615394857992 0.0009243384535362886 0.005018693574588118
0.008413002077209707 6.436745880888939e-05 0.004257490627442129
0.009832195458196191 7.863522746731633e-05 0.0040673133926276694
0.011251398750097029 9.290309576442946e-05 0.00387713482971358
0.012670602041997867 0.00010717096406154258 0.003686956266799435
0.014089795422984351 0.00012143873271996952 0.003496779031985031
0.015508998714885189 0.00013570660101708265 0.0033066004690709416
0.016928197051328857 0.00014997441949482493 0.0031164225702066672
0.01834739637886395 0.00016424224793648579 0.0029262445385324076
0.019822176106368338 0.0010529824328141535 0.0033039786222813783
0.02124395623600134 0.0010672762071823882 0.0031134547534483747
0.02266573735672577 0.001081569991514486 0.0029229307518054415
0.024087517486358772 0.0010958637658827208 0.0027324068829724935
0.025509297318664335 0.0011101575372617911 0.0025418830539825077
0.02693107744829733 0.0011244513116300259 0.002351359185149504
0.02835285787525776 0.001138745088987425 0.0021608352764735383
0.029774638004890764 0.0011530388633556043 0.001970311407640535
0.031120195282137005 0.0002926527537305268 0.0012146415894144225
0.032539395600763535 0.0003069205921360507 0.0010244634249302331
0.03395859591939007 0.00032118843054151913 0.0008342852604459883
0.04531219846840233 0.0004353311377855995 -0.0006871400554276375
0.046731391849388806 0.00044959890644397094 -0.0008773172902420967
0.04815059514128965 0.00046386677474108406 -0.0010674958531561862
0.04967955783756986 0.0013531516845830538 -0.0006970224904012112
0.051101337967202856 0.0013674454589512886 -0.0008875463592341593
0.05252311809683585 0.0013817392333195233 -0.0010780702280671628
0.0040488343754697745 0.0019917533428426837 0.004483791389079228
0.00544108792231264 0.0011297714204117626 0.003723621700716273
0.03524428767582978 0.0014293959571802795 -0.000270118823782306
0.036663490967730625 0.0014436638254773926 -0.00046029738669645104
0.04943628095118076 0.0015720742415966105 -0.00217189914052468
0.05085548424308159 0.0015863421098937236 -0.002362077703438825
0.0523893587829917 0.002477741671362388 -0.001994020151242004
0.0538111389126247 0.002492035445730567 -0.002184544020074952
-0.000369222318362894 0.0021667162424698905 0.003570043396559197
0.0010499710626235871 0.002180984011128262 0.0033798661617447934
0.03511077078092889 0.002523412053149432 -0.001184408723396424
0.036529974072829735 0.002537679921446545 -0.001374587286310569
0.03794916745381621 0.0025519476901049165 -0.0015647645211249728
0.03936837074571706 0.002566215558402085 -0.0017549430840391178
0.0507219673481807 0.002680358205862876 -0.003276367603052943
0.052141170640081544 0.0026946260741599892 -0.0034665461659670327
0.05367738892258606 0.003587961486001323 -0.0031004300961898212
0.03213886356367188 0.003588816084499402 -0.0017182785797920652
0.033558063882298414 0.0036030839229048706 -0.00190845674427631
0.034977263209833506 0.0036173517513465314 -0.002098634775950514
0.03639646650173435 0.0036316196196436445 -0.002288813338864659
0.03781565988272083 0.003645887388302016 -0.002478990573679063
0.03923486317462167 0.0036601552565991846 -0.002669169136593208
0.040654066466522504 0.0036744231248962977 -0.0028593476995072975
0.042073259847508995 0.003688690893554669 -0.0030495249343217012
0.049169256485184484 0.0037600300357628624 -0.004000415092692888
0.050588459777085315 0.0037742979040599756 -0.004190593655607033
0.05200766306898616 0.0037885657723570887 -0.004380772218521123
0.03723807885560341 -9.660975956460316e-05 0.0034166107106450294
0.038662435822968556 -8.229007912524677e-05 0.0032257415358931674
0.04151115966861323 -5.365061860784781e-05 0.002844001858289813
0.042935516635978395 -3.9330938168546936e-05 0.002653132683537951
0.03140663339589241 0.0009441001393726833 0.0032624795878763435
0.04849896259448032 0.0011159367629827721 0.0009720433815956775
0.04992331956184548 0.001130256443422073 0.0007811742068438154
0.05406240855298225 0.0022712044641340356 -0.000709045920346707
0.0026514265660537543 0.0028536069557205113 0.005244716864439669
0.05535277311136552 0.0033834365269179156 -0.0018174611947741615
0.03447121597171374 0.0007455862793531165 0.004366060730575605
0.0358981567144511 0.000759931935610636 0.004174845320235099
0.04445980117087528 0.0008460058731559195 0.003027552858192173
0.04588674488688696 0.0008603515593050837 0.0028363370494217666
0.011505920340167848 0.001615954413975773 0.006506302368076811
0.012932864056179522 0.0016303001001249373 0.006315086559306404
0.014359807772191195 0.0016446457862741015 0.006123870750535998
0.01578675148820286 0.0016589914724232657 0.005932654941765592
0.030056157924485065 0.0018024480250348196 0.004020500971170682
0.05146027501209414 0.0020176329286811234 0.0011522690192035667
0.052887218728105805 0.0020319786148302876 0.0009610532104331604
0.00566392114621922 0.0026585469908467774 0.00635189297666261
0.05560685209748412 0.003160645009680052 -0.0003406470493043101
0.03312356273025611 0.0016019737589041405 0.0051253964330819635
0.04741877916970019 0.0017456897907093816 0.0032097838252796995
0.04884829972344401 0.001760061382929612 0.0030182227105904347
0.05027782027718784 0.0017744329751498977 0.0028266615959012253
0.008687207915199831 0.0024596179661100503 0.007461007912331619
0.010116738379858017 0.0024739896579690224 0.007269445469542668
0.017264341148577157 0.0025458476190703405 0.006311639896096399
0.018693861702320982 0.0025602192112906264 0.0061200787814071345
0.020123384238247683 0.0025745908234386383 0.005928517401097955
0.02584146893095159 0.002632077217229356 0.005162272610315988
0.027270990277568564 0.00264644881742071 0.004970711389378768
0.0287005115250764 0.0026608204166156946 0.004779150181722536
0.054431895367745425 0.002919509216074645 0.0013310482579763083
0.037633877929238425 0.0014120281404433332 0.006040321508821778
0.03906597532071442 0.0014264256387346852 0.005848415088213654
0.04049808262310476 0.0014408232366647789 0.005656507339505845
0.041930180014580744 0.0014552207349561308 0.005464600918897722
0.04336227740605674 0.0014696182332475383 0.0052726944982895985
0.03177074887569411 0.0024583093565660463 0.005885423677095769
0.051820171821844056 0.0026598749304774794 0.0031987258199839275
0.05325227912423441 0.002674272528407573 0.0030068180712761183
0.023043408777752256 0.003475871904130845 0.0061142757691958205
0.024475511124685424 0.0034902694522416233 0.005922368684537882
0.0559817449175692 0.0038070153313279342 0.0017004152126420258
0.036286473643671435 0.0022664937645978656 0.00680139344339753
0.04489456361803491 0.0023530346391469337 0.005647877107786969
0.046329247758157416 0.0023674581431480934 0.005455624053160302
0.05480237127941763 0.003559933215927902 0.003377857012521357
0.03493389368892244 0.0031207785135811683 0.0075630047680834145
0.047869255373803044 0.0032508233337621983 0.005829617796643982
0.04930651635165771 0.0032652727438345353 0.005637019436098456
0.050743777329512366 0.0032797221539068167 0.00544442107555293
0.040910826382426484 0.0029376223221626585 0.00828816763439455
0.0423506641980133 0.0029520976383060615 0.008095223967930165
0.043888336994177365 0.003833514997705234 0.008471300179071883
0.045330761558410704 0.0038480163195585004 0.008278009878588899
