# .PCD v0.7 - Point Cloud Data file format
VERSION 0.7
FIELDS x y z
SIZE 4 4 4
TYPE F F F
COUNT 1 1 1
WIDTH 597
HEIGHT 1
VIEWPOINT 0 0 0 1 0 0 0
POINTS 597
DATA ascii
-0.0757236 0.1728967 0.534
-0.0743333 0.1728967 0.534
-0.07294301 0.1728967 0.534
-0.0715527 0.1728967 0.534
-0.0701624 0.1728967 0.534
-0.0687721 0.1728967 0.534
-0.0771139 0.174287 0.534
-0.0757236 0.174287 0.534
-0.0743333 0.174287 0.534
-0.07294301 0.174287 0.534
-0.0715527 0.174287 0.534
-0.0701624 0.174287 0.534
-0.0687721 0.174287 0.534
-0.0771139 0.1756773 0.534
-0.0757236 0.1756773 0.534
-0.0743333 0.1756773 0.534
-0.07294301 0.1756773 0.534
-0.0715527 0.1756773 0.534
-0.0701624 0.1756773 0.534
-0.0744725 0.1718275 0.535
-0.0730796 0.1718275 0.535
-0.0716867 0.1718275 0.535
-0.07029379 0.1718275 0.535
-0.06890088 0.1718275 0.535
-0.06750798 0.1718275 0.535
-0.07725831 0.1732204 0.535
-0.06750798 0.1732204 0.535
-0.07865121 0.1746133 0.535
-0.06750798 0.1746133 0.535
-0.07865121 0.1760062 0.535
-0.06890088 0.1760062 0.535
-0.07725831 0.1773991 0.535
-0.0758654 0.1773991 0.535
-0.0744725 0.1773991 0.535
-0.0730796 0.1773991 0.535
-0.07182069 0.1707532 0.536
-0.07614901 0.1710718 0.537
-0.0747509 0.1710718 0.537
-0.07335279 0.1710718 0.537
-0.07055657 0.1710718 0.537
-0.06915846 0.1710718 0.537
-0.06776035 0.1710718 0.537
-0.07894523 0.1724699 0.537
-0.07740272 0.1721487 0.536
-0.07600721 0.1721487 0.536
-0.06623866 0.1721487 0.536
-0.06484316 0.1721487 0.536
-0.06356601 0.1724699 0.537
-0.06216791 0.1724699 0.537
-0.0607698 0.1724699 0.537
-0.08034334 0.173868 0.537
-0.07879823 0.1735442 0.536
-0.06623866 0.1735442 0.536
-0.06484316 0.1735442 0.536
-0.06356601 0.173868 0.537
-0.06216791 0.173868 0.537
-0.0607698 0.173868 0.537
-0.08019372 0.1749397 0.536
-0.06623866 0.1749397 0.536
-0.06484316 0.1749397 0.536
-0.06356601 0.1752661 0.537
-0.06216791 0.1752661 0.537
-0.08174145 0.1766642 0.537
-0.08019372 0.1763352 0.536
-0.06763417 0.1763352 0.536
-0.06636224 0.1766642 0.537
-0.06496413 0.1766642 0.537
-0.08019372 0.1777307 0.536
-0.07879823 0.1777307 0.536
-0.07182069 0.1777307 0.536
-0.07042518 0.1777307 0.536
-0.08174145 0.1780623 0.537
-0.06915846 0.1780623 0.537
-0.08174145 0.1794604 0.537
-0.08034334 0.1794604 0.537
-0.07894523 0.1794604 0.537
-0.07740272 0.1791262 0.536
-0.07614901 0.1794604 0.537
-0.0747509 0.1794604 0.537
-0.07335279 0.1794604 0.537
-0.07195468 0.1794604 0.537
-0.07769153 0.1713903 0.538
-0.06648582 0.1713903 0.538
-0.06508511 0.1713903 0.538
-0.0636844 0.1713903 0.538
-0.08049296 0.172791 0.538
-0.05948225 0.172791 0.538
-0.05808154 0.172791 0.538
-0.08189368 0.1741918 0.538
-0.05948225 0.1741918 0.538
-0.05808154 0.1741918 0.538
-0.05668082 0.1741918 0.538
-0.08189368 0.1755925 0.538
-0.06088297 0.1755925 0.538
-0.05948225 0.1755925 0.538
-0.05808154 0.1755925 0.538
-0.08329439 0.1769932 0.538
-0.0636844 0.1769932 0.538
-0.08329439 0.1783939 0.538
-0.06788653 0.1783939 0.538
-0.07222267 0.1703056 0.539
-0.07081936 0.1703056 0.539
-0.06941603 0.1703056 0.539
-0.07923926 0.1717089 0.539
-0.06239945 0.1717089 0.539
-0.06099613 0.1717089 0.539
-0.05959282 0.1717089 0.539
-0.0581895 0.1717089 0.539
-0.05678618 0.1731122 0.539
-0.05538286 0.1731122 0.539
-0.05397954 0.1731122 0.539
-0.05257623 0.1731122 0.539
-0.05117291 0.1731122 0.539
-0.05538286 0.1745155 0.539
-0.05397954 0.1745155 0.539
-0.05257623 0.1745155 0.539
-0.05117291 0.1745155 0.539
-0.04976959 0.1745155 0.539
-0.08344921 0.1759189 0.539
-0.05678618 0.1759189 0.539
-0.05538286 0.1759189 0.539
-0.05397954 0.1759189 0.539
-0.05257623 0.1759189 0.539
-0.05117291 0.1759189 0.539
-0.08485253 0.1773222 0.539
-0.06239945 0.1773222 0.539
-0.06099613 0.1773222 0.539
-0.05959282 0.1773222 0.539
-0.0581895 0.1773222 0.539
-0.05678618 0.1773222 0.539
-0.05538286 0.1773222 0.539
-0.05397954 0.1773222 0.539
-0.07657442 0.1706215 0.54
-0.07516851 0.1706215 0.54
-0.07376259 0.1706215 0.54
-0.0681389 0.1706215 0.54
-0.06673298 0.1706215 0.54
-0.06532706 0.1706215 0.54
-0.06392114 0.1706215 0.54
-0.06251521 0.1706215 0.54
-0.08079219 0.1720275 0.54
-0.05689153 0.1720275 0.54
-0.05548561 0.1720275 0.54
-0.05407969 0.1720275 0.54
-0.05267377 0.1720275 0.54
-0.05126785 0.1720275 0.54
-0.08219811 0.1734334 0.54
-0.04986193 0.1734334 0.54
-0.04845601 0.1734334 0.54
-0.08360403 0.1748393 0.54
-0.04845601 0.1748393 0.54
-0.08500995 0.1762452 0.54
-0.04986193 0.1762452 0.54
-0.04845601 0.1762452 0.54
-0.05267377 0.1776512 0.54
-0.05126785 0.1776512 0.54
-0.04986193 0.1776512 0.54
-0.04845601 0.1776512 0.54
-0.07812475 0.1709375 0.541
-0.06122246 0.1709375 0.541
-0.05981394 0.1709375 0.541
-0.05840541 0.1709375 0.541
-0.05699688 0.1709375 0.541
-0.05558836 0.1709375 0.541
-0.04995427 0.172346 0.541
-0.04854574 0.172346 0.541
-0.04713722 0.1737546 0.541
-0.04572869 0.1737546 0.541
-0.04432017 0.1737546 0.541
-0.04291164 0.1737546 0.541
-0.04150311 0.1737546 0.541
-0.04009459 0.1737546 0.541
-0.03868607 0.1737546 0.541
-0.04713722 0.1751631 0.541
-0.04572869 0.1751631 0.541
-0.04432017 0.1751631 0.541
-0.04291164 0.1751631 0.541
-0.04150311 0.1751631 0.541
-0.04009459 0.1751631 0.541
-0.03868607 0.1751631 0.541
-0.04713722 0.1765716 0.541
-0.04572869 0.1765716 0.541
-0.04432017 0.1765716 0.541
-0.04291164 0.1765716 0.541
-0.04150311 0.1765716 0.541
-0.04009459 0.1765716 0.541
-0.03868607 0.1765716 0.541
-0.07262466 0.1698423 0.5420001
-0.07121353 0.1698423 0.5420001
-0.0698024 0.1698423 0.5420001
-0.06556901 0.1698423 0.5420001
-0.0796803 0.1712535 0.5420001
-0.05427999 0.1712535 0.5420001
-0.05286886 0.1712535 0.5420001
-0.05145773 0.1712535 0.5420001
-0.0500466 0.1712535 0.5420001
-0.04863548 0.1712535 0.5420001
-0.04722435 0.1712535 0.5420001
-0.08250255 0.1726646 0.5420001
-0.04722435 0.1726646 0.5420001
-0.04581322 0.1726646 0.5420001
-0.04440209 0.1726646 0.5420001
-0.04299096 0.1726646 0.5420001
-0.04157983 0.1726646 0.5420001
-0.04016871 0.1726646 0.5420001
-0.03875758 0.1726646 0.5420001
-0.03593532 0.1726646 0.5420001
-0.03452419 0.1726646 0.5420001
-0.03311307 0.1726646 0.5420001
-0.08391368 0.1740757 0.5420001
-0.03593532 0.1740757 0.5420001
-0.03452419 0.1740757 0.5420001
-0.03311307 0.1740757 0.5420001
-0.03170194 0.1740757 0.5420001
-0.03734645 0.1754869 0.5420001
-0.03593532 0.1754869 0.5420001
-0.03452419 0.1754869 0.5420001
-0.03311307 0.1754869 0.5420001
-0.07699984 0.1701557 0.543
-0.07558611 0.1701557 0.543
-0.07417239 0.1701557 0.543
-0.06851745 0.1701557 0.543
-0.06710372 0.1701557 0.543
-0.06427626 0.1701557 0.543
-0.06286253 0.1701557 0.543
-0.06144879 0.1701557 0.543
-0.06003506 0.1701557 0.543
-0.05862133 0.1701557 0.543
-0.0572076 0.1701557 0.543
-0.05579387 0.1701557 0.543
-0.05438013 0.1701557 0.543
-0.08124103 0.1715694 0.543
-0.04589774 0.1715694 0.543
-0.04448402 0.1715694 0.543
-0.04307028 0.1715694 0.543
-0.04165655 0.1715694 0.543
-0.04024282 0.1715694 0.543
-0.03882908 0.1715694 0.543
-0.03741536 0.1715694 0.543
-0.03600162 0.1715694 0.543
-0.03458789 0.1715694 0.543
-0.03317416 0.1715694 0.543
-0.03176043 0.1715694 0.543
-0.0303467 0.1715694 0.543
-0.0840685 0.1729832 0.543
-0.03176043 0.1729832 0.543
-0.0303467 0.1729832 0.543
-0.02893296 0.1729832 0.543
-0.0303467 0.1743969 0.543
-0.02893296 0.1743969 0.543
-0.01765556 0.1676364 0.544
-0.01623923 0.1676364 0.544
-0.01482289 0.1676364 0.544
-0.01340656 0.1676364 0.544
-0.01199022 0.1676364 0.544
-0.01057389 0.1676364 0.544
-0.009157552 0.1676364 0.544
-0.02048823 0.1690527 0.544
-0.0190719 0.1690527 0.544
-0.01765556 0.1690527 0.544
-0.01623923 0.1690527 0.544
-0.01482289 0.1690527 0.544
-0.01340656 0.1690527 0.544
-0.01199022 0.1690527 0.544
-0.07855798 0.1704691 0.544
-0.05306395 0.1704691 0.544
-0.05164761 0.1704691 0.544
-0.05023128 0.1704691 0.544
-0.02756991 0.1704691 0.544
-0.02615358 0.1704691 0.544
-0.02473724 0.1704691 0.544
-0.02332091 0.1704691 0.544
-0.02190457 0.1704691 0.544
-0.02048823 0.1704691 0.544
-0.0190719 0.1704691 0.544
-0.01765556 0.1704691 0.544
-0.08280698 0.1718854 0.544
-0.02898625 0.1718854 0.544
-0.02756991 0.1718854 0.544
-0.02615358 0.1718854 0.544
-0.02473724 0.1718854 0.544
-0.02332091 0.1718854 0.544
-0.02190457 0.1718854 0.544
-0.02048823 0.1718854 0.544
-0.01765556 0.1718854 0.544
-0.02756991 0.1733017 0.544
-0.02615358 0.1733017 0.544
-0.02473724 0.1733017 0.544
-0.02332091 0.1733017 0.544
-0.02190457 0.1733017 0.544
-0.01768802 0.1665256 0.545
-0.01626908 0.1665256 0.545
-0.01485014 0.1665256 0.545
-0.0134312 0.1665256 0.545
-0.01201226 0.1665256 0.545
-0.01059333 0.1665256 0.545
-0.009174386 0.1665256 0.545
-0.007755448 0.1665256 0.545
-0.01910696 0.1679446 0.545
-0.007755448 0.1679446 0.545
-0.02478271 0.1693635 0.545
-0.02336377 0.1693635 0.545
-0.02194484 0.1693635 0.545
-0.01059333 0.1693635 0.545
-0.009174386 0.1693635 0.545
-0.08012133 0.1707824 0.545
-0.04890467 0.1707824 0.545
-0.04748574 0.1707824 0.545
-0.04606679 0.1707824 0.545
-0.03755316 0.1707824 0.545
-0.03613422 0.1707824 0.545
-0.03471529 0.1707824 0.545
-0.03329635 0.1707824 0.545
-0.03187741 0.1707824 0.545
-0.03045847 0.1707824 0.545
-0.02903953 0.1707824 0.545
-0.01626908 0.1707824 0.545
-0.01485014 0.1707824 0.545
-0.0134312 0.1707824 0.545
-0.01201226 0.1707824 0.545
-0.01059333 0.1707824 0.545
-0.01910696 0.1722014 0.545
-0.01626908 0.1722014 0.545
-0.01485014 0.1722014 0.545
-0.0205259 0.1736203 0.545
-0.01910696 0.1736203 0.545
-0.01768802 0.1736203 0.545
-0.01914201 0.1668312 0.546
-0.006348135 0.1668312 0.546
-0.0219851 0.1682527 0.546
-0.02056356 0.1682527 0.546
-0.006348135 0.1682527 0.546
-0.004926594 0.1682527 0.546
-0.07600371 0.1696743 0.546
-0.07458217 0.1696743 0.546
-0.07316063 0.1696743 0.546
-0.07173909 0.1696743 0.546
-0.07031754 0.1696743 0.546
-0.068896 0.1696743 0.546
-0.06747445 0.1696743 0.546
-0.06178828 0.1696743 0.546
-0.06036675 0.1696743 0.546
-0.0589452 0.1696743 0.546
-0.05752366 0.1696743 0.546
-0.05610212 0.1696743 0.546
-0.05468057 0.1696743 0.546
-0.02909281 0.1696743 0.546
-0.02767127 0.1696743 0.546
-0.02624973 0.1696743 0.546
-0.007769678 0.1696743 0.546
-0.006348135 0.1696743 0.546
-0.004926594 0.1696743 0.546
-0.08168987 0.1710958 0.546
-0.04472978 0.1710958 0.546
-0.04330824 0.1710958 0.546
-0.04046515 0.1710958 0.546
-0.03904361 0.1710958 0.546
-0.00919122 0.1710958 0.546
-0.007769678 0.1710958 0.546
-0.006348135 0.1710958 0.546
-0.01345585 0.1725173 0.546
-0.01203431 0.1725173 0.546
-0.01061276 0.1725173 0.546
-0.01632878 0.1657126 0.5470001
-0.01490464 0.1657126 0.5470001
-0.01348049 0.1657126 0.5470001
-0.01205635 0.1657126 0.5470001
-0.0106322 0.1657126 0.5470001
-0.009208054 0.1657126 0.5470001
-0.007783909 0.1657126 0.5470001
-0.02060122 0.1671367 0.5470001
-0.004935617 0.1671367 0.5470001
-0.003511471 0.1671367 0.5470001
-0.002087325 0.1671367 0.5470001
-0.0006631788 0.1671367 0.5470001
-0.02487366 0.1685609 0.5470001
-0.02344952 0.1685609 0.5470001
-0.003511471 0.1685609 0.5470001
-0.002087325 0.1685609 0.5470001
-0.07899121 0.169985 0.5470001
-0.07756706 0.169985 0.5470001
-0.05335658 0.169985 0.5470001
-0.05193243 0.169985 0.5470001
-0.05050829 0.169985 0.5470001
-0.03341854 0.169985 0.5470001
-0.03199439 0.169985 0.5470001
-0.03057024 0.169985 0.5470001
-0.003511471 0.169985 0.5470001
-0.002087325 0.169985 0.5470001
-0.04196341 0.1714092 0.5470001
-0.004935617 0.1714092 0.5470001
-0.003511471 0.1714092 0.5470001
-0.01921213 0.1660155 0.548
-0.01778539 0.1660155 0.548
-0.006371389 0.1660155 0.548
-0.00494464 0.1660155 0.548
-0.002091141 0.1660155 0.548
-0.0006643912 0.1660155 0.548
-0.02206563 0.1674423 0.548
0.0007623583 0.1674423 0.548
0.002189108 0.1674423 0.548
-0.05773437 0.168869 0.548
-0.02777263 0.168869 0.548
-0.02634588 0.168869 0.548
-0.0006643912 0.168869 0.548
0.0007623583 0.168869 0.548
-0.04917387 0.1702958 0.548
-0.04774713 0.1702958 0.548
-0.03633313 0.1702958 0.548
-0.03490638 0.1702958 0.548
-0.0006643912 0.1702958 0.548
0.0007623583 0.1702958 0.548
0.009339868 0.1648891 0.549
0.01076922 0.1648891 0.549
0.01219857 0.1648891 0.549
0.01362793 0.1648891 0.549
0.01505728 0.1648891 0.549
0.01648663 0.1648891 0.549
0.01791599 0.1648891 0.549
-0.00352431 0.1663185 0.549
0.0007637495 0.1663185 0.549
0.002193102 0.1663185 0.549
0.003622456 0.1663185 0.549
0.005051808 0.1663185 0.549
0.006481161 0.1663185 0.549
0.007910515 0.1663185 0.549
0.01219857 0.1663185 0.549
0.01362793 0.1663185 0.549
0.01505728 0.1663185 0.549
0.01648663 0.1663185 0.549
0.01791599 0.1663185 0.549
0.01934534 0.1663185 0.549
0.02077469 0.1663185 0.549
0.02220404 0.1663185 0.549
-0.02353525 0.1677478 0.549
0.003622456 0.1677478 0.549
0.005051808 0.1677478 0.549
0.006481161 0.1677478 0.549
0.007910515 0.1677478 0.549
0.01505728 0.1677478 0.549
0.01648663 0.1677478 0.549
0.01791599 0.1677478 0.549
0.01934534 0.1677478 0.549
0.02077469 0.1677478 0.549
0.02220404 0.1677478 0.549
0.0236334 0.1677478 0.549
-0.07499196 0.1691772 0.549
-0.07356261 0.1691772 0.549
-0.07213326 0.1691772 0.549
-0.0707039 0.1691772 0.549
-0.0678452 0.1691772 0.549
-0.06641585 0.1691772 0.549
-0.06498649 0.1691772 0.549
-0.06355714 0.1691772 0.549
-0.06212778 0.1691772 0.549
-0.06069843 0.1691772 0.549
-0.05926908 0.1691772 0.549
-0.05641037 0.1691772 0.549
-0.05498102 0.1691772 0.549
-0.05355167 0.1691772 0.549
-0.03068202 0.1691772 0.549
-0.02925266 0.1691772 0.549
0.002193102 0.1691772 0.549
0.003622456 0.1691772 0.549
0.005051808 0.1691772 0.549
0.01791599 0.1691772 0.549
0.01934534 0.1691772 0.549
0.02077469 0.1691772 0.549
0.02220404 0.1691772 0.549
0.002193102 0.1706065 0.549
0.003622456 0.1706065 0.549
0.02077469 0.1706065 0.549
0.01367757 0.1626207 0.551
0.01078884 0.1637575 0.55
0.01222079 0.1637575 0.55
0.01365275 0.1637575 0.55
0.01508471 0.1637575 0.55
0.01651666 0.1637575 0.55
0.006504772 0.1640552 0.551
0.007939332 0.1640552 0.551
0.009373892 0.1640552 0.551
0.01798125 0.1640552 0.551
0.01941581 0.1640552 0.551
0.02085037 0.1640552 0.551
-0.01931731 0.1654898 0.551
-0.01785029 0.1651895 0.55
-0.01641834 0.1651895 0.55
-0.01498638 0.1651895 0.55
-0.01355442 0.1651895 0.55
-0.01212247 0.1651895 0.55
-0.01069051 0.1651895 0.55
-0.009258555 0.1651895 0.55
-0.007826599 0.1651895 0.55
-0.006406269 0.1654898 0.551
-0.004971709 0.1654898 0.551
-0.003537148 0.1654898 0.551
-0.002102588 0.1654898 0.551
-0.0006680283 0.1654898 0.551
0.0007665317 0.1654898 0.551
0.002201092 0.1654898 0.551
0.003635652 0.1654898 0.551
0.00506101 0.1651895 0.55
0.006492967 0.1651895 0.55
0.007924924 0.1651895 0.55
0.01938058 0.1651895 0.55
0.02081253 0.1651895 0.55
0.02224449 0.1651895 0.55
0.02371949 0.1654898 0.551
0.02515405 0.1654898 0.551
0.02658861 0.1654898 0.551
-0.02218643 0.1669244 0.551
-0.02071421 0.1666214 0.55
0.00935688 0.1666214 0.55
0.01078884 0.1666214 0.55
0.02367644 0.1666214 0.55
0.0251084 0.1666214 0.55
0.02658861 0.1669244 0.551
0.02802317 0.1669244 0.551
-0.02644203 0.1680534 0.55
-0.02501008 0.1680534 0.55
0.00935688 0.1680534 0.55
0.01078884 0.1680534 0.55
0.01222079 0.1680534 0.55
0.01365275 0.1680534 0.55
0.0251084 0.1680534 0.55
0.02654036 0.1680534 0.55
0.02802317 0.1683589 0.551
0.006492967 0.1694853 0.55
0.007924924 0.1694853 0.55
0.00935688 0.1694853 0.55
0.01078884 0.1694853 0.55
0.01222079 0.1694853 0.55
0.01365275 0.1694853 0.55
0.01508471 0.1694853 0.55
0.01651666 0.1694853 0.55
0.02367644 0.1694853 0.55
0.0251084 0.1694853 0.55
0.02654036 0.1694853 0.55
0.01082807 0.1629158 0.552
0.01226523 0.1629158 0.552
0.01513956 0.1629158 0.552
0.01657672 0.1629158 0.552
0.005079414 0.164353 0.552
0.02232538 0.164353 0.552
0.02376254 0.164353 0.552
0.02807404 0.1657902 0.552
-0.02366386 0.1672273 0.552
0.0295112 0.1672273 0.552
0.007968151 0.163211 0.553
0.009407918 0.163211 0.553
0.01804652 0.163211 0.553
0.01948629 0.163211 0.553
-0.01506813 0.1646507 0.553
-0.01362836 0.1646507 0.553
-0.01218859 0.1646507 0.553
-0.01074882 0.1646507 0.553
0.003648849 0.1646507 0.553
0.02524536 0.1646507 0.553
0.02668513 0.1646507 0.553
-0.02082719 0.1660905 0.553
0.02956466 0.1660905 0.553
0.006540189 0.1635061 0.554
0.0209639 0.1635061 0.554
0.02240627 0.1635061 0.554
0.02384864 0.1635061 0.554
-0.01798012 0.1649485 0.554
-0.01653774 0.1649485 0.554
-0.00932589 0.1649485 0.554
-0.00788352 0.1649485 0.554
-0.006441148 0.1649485 0.554
-0.0006716655 0.1649485 0.554
0.0007707053 0.1649485 0.554
0.002213076 0.1649485 0.554
0.02817575 0.1649485 0.554
0.01088692 0.1623563 0.555
0.01233189 0.1623563 0.555
0.01377687 0.1623563 0.555
0.01522184 0.1623563 0.555
0.01666681 0.1623563 0.555
0.00510702 0.1638012 0.555
0.02533666 0.1638012 0.555
0.02678164 0.1638012 0.555
-0.003562827 0.1652462 0.555
-0.002117852 0.1652462 0.555
0.02967158 0.1652462 0.555
0.009458955 0.1626488 0.5560001
0.01814442 0.1626488 0.5560001
0.019592 0.1626488 0.5560001
0.02827747 0.1640964 0.5560001
0.008025787 0.1629413 0.557
0.02107742 0.1629413 0.557
0.0225276 0.1629413 0.557
0.02397778 0.1629413 0.557
0.01385134 0.1617811 0.558
0.01530412 0.1617811 0.558
0.01678693 0.162071 0.559
0.01824232 0.162071 0.559
