# .PCD v0.7 - Point Cloud Data file format
VERSION 0.7
FIELDS x y z
SIZE 4 4 4
TYPE F F F
COUNT 1 1 1
WIDTH 1370
HEIGHT 1
VIEWPOINT 0 0 0 1 0 0 0
POINTS 1370
DATA ascii
-0.07179821 0.1012691 0.569
0.005235845 0.1264533 0.569
0.006717269 0.1264533 0.569
0.008198693 0.1264533 0.569
0.005235845 0.1279347 0.569
0.006717269 0.1279347 0.569
-0.07340842 0.1014471 0.5700001
-0.07044037 0.1014471 0.5700001
0.005245048 0.1222234 0.5700001
0.006729075 0.1222234 0.5700001
0.008213103 0.1222234 0.5700001
0.009697131 0.1222234 0.5700001
0.01118116 0.1222234 0.5700001
0.002276992 0.1237075 0.5700001
0.00376102 0.1237075 0.5700001
0.005245048 0.1237075 0.5700001
0.006729075 0.1237075 0.5700001
0.008213103 0.1237075 0.5700001
0.009697131 0.1237075 0.5700001
0.01118116 0.1237075 0.5700001
0.01266519 0.1237075 0.5700001
0.000792964 0.1251915 0.5700001
0.002276992 0.1251915 0.5700001
0.00376102 0.1251915 0.5700001
0.005245048 0.1251915 0.5700001
0.006729075 0.1251915 0.5700001
0.008213103 0.1251915 0.5700001
0.009697131 0.1251915 0.5700001
0.01118116 0.1251915 0.5700001
0.01266519 0.1251915 0.5700001
-0.0006910638 0.1266755 0.5700001
0.000792964 0.1266755 0.5700001
0.002276992 0.1266755 0.5700001
0.00376102 0.1266755 0.5700001
0.009697131 0.1266755 0.5700001
0.01118116 0.1266755 0.5700001
0.01266519 0.1266755 0.5700001
0.01414922 0.1266755 0.5700001
-0.0006910638 0.1281596 0.5700001
0.000792964 0.1281596 0.5700001
0.002276992 0.1281596 0.5700001
0.00376102 0.1281596 0.5700001
0.008213103 0.1281596 0.5700001
0.009697131 0.1281596 0.5700001
0.01118116 0.1281596 0.5700001
0.01266519 0.1281596 0.5700001
-0.0006910638 0.1296436 0.5700001
0.000792964 0.1296436 0.5700001
0.002276992 0.1296436 0.5700001
0.00376102 0.1296436 0.5700001
0.005245048 0.1296436 0.5700001
0.006729075 0.1296436 0.5700001
0.008213103 0.1296436 0.5700001
0.009697131 0.1296436 0.5700001
0.01118116 0.1296436 0.5700001
-0.0006910638 0.1311276 0.5700001
0.000792964 0.1311276 0.5700001
0.002276992 0.1311276 0.5700001
0.00376102 0.1311276 0.5700001
0.005245048 0.1311276 0.5700001
0.006729075 0.1311276 0.5700001
0.008213103 0.1311276 0.5700001
-0.07502384 0.101625 0.571
0.003767618 0.1209512 0.571
0.005254249 0.1209512 0.571
0.00674088 0.1209512 0.571
0.008227512 0.1209512 0.571
0.009714143 0.1209512 0.571
0.01120077 0.1209512 0.571
-0.0006922762 0.1224379 0.571
0.0007943551 0.1224379 0.571
0.002280986 0.1224379 0.571
0.003767618 0.1224379 0.571
0.01268741 0.1224379 0.571
0.01417404 0.1224379 0.571
-0.002178908 0.1239245 0.571
-0.0006922762 0.1239245 0.571
0.0007943551 0.1239245 0.571
0.01417404 0.1239245 0.571
-0.003665539 0.1254111 0.571
-0.002178908 0.1254111 0.571
-0.0006922762 0.1254111 0.571
0.01417404 0.1254111 0.571
0.01566067 0.1254111 0.571
-0.003665539 0.1268978 0.571
-0.002178908 0.1268978 0.571
0.01566067 0.1268978 0.571
-0.005152171 0.1283844 0.571
-0.003665539 0.1283844 0.571
-0.002178908 0.1283844 0.571
0.01417404 0.1283844 0.571
0.01566067 0.1283844 0.571
-0.005152171 0.129871 0.571
-0.003665539 0.129871 0.571
-0.002178908 0.129871 0.571
0.01268741 0.129871 0.571
0.01417404 0.129871 0.571
-0.005152171 0.1313577 0.571
-0.003665539 0.1313577 0.571
-0.002178908 0.1313577 0.571
0.009714143 0.1313577 0.571
0.01120077 0.1313577 0.571
0.01268741 0.1313577 0.571
-0.003665539 0.1328443 0.571
-0.002178908 0.1328443 0.571
-0.0006922762 0.1328443 0.571
0.0007943551 0.1328443 0.571
0.002280986 0.1328443 0.571
0.003767618 0.1328443 0.571
0.005254249 0.1328443 0.571
0.00674088 0.1328443 0.571
0.008227512 0.1328443 0.571
0.009714143 0.1328443 0.571
-0.07664447 0.101803 0.572
0.0007957463 0.1196738 0.572
0.002284981 0.1196738 0.572
0.003774216 0.1196738 0.572
0.005263451 0.1196738 0.572
0.006752686 0.1196738 0.572
0.008241921 0.1196738 0.572
0.009731156 0.1196738 0.572
0.01122039 0.1196738 0.572
-0.002182723 0.1211631 0.572
-0.0006934886 0.1211631 0.572
0.0007957463 0.1211631 0.572
0.002284981 0.1211631 0.572
0.01270963 0.1211631 0.572
-0.003671958 0.1226523 0.572
-0.002182723 0.1226523 0.572
0.0156881 0.1226523 0.572
-0.005161193 0.1241415 0.572
-0.003671958 0.1241415 0.572
0.0156881 0.1241415 0.572
-0.006650428 0.1256308 0.572
-0.005161193 0.1256308 0.572
-0.008139663 0.12712 0.572
-0.006650428 0.12712 0.572
-0.005161193 0.12712 0.572
-0.008139663 0.1286092 0.572
-0.006650428 0.1286092 0.572
-0.008139663 0.1300985 0.572
-0.006650428 0.1300985 0.572
0.0156881 0.1300985 0.572
-0.008139663 0.1315877 0.572
-0.006650428 0.1315877 0.572
0.01419886 0.1315877 0.572
-0.006650428 0.1330769 0.572
-0.005161193 0.1330769 0.572
0.01122039 0.1330769 0.572
0.01270963 0.1330769 0.572
-0.002182723 0.1345662 0.572
-0.0006934886 0.1345662 0.572
0.0007957463 0.1345662 0.572
0.002284981 0.1345662 0.572
0.003774216 0.1345662 0.572
0.005263451 0.1345662 0.572
0.006752686 0.1345662 0.572
-0.002190355 0.1171034 0.574
-0.0006959133 0.1171034 0.574
0.0007985285 0.1171034 0.574
0.00229297 0.1171034 0.574
0.003787412 0.1171034 0.574
0.005281854 0.1171034 0.574
-0.003684797 0.1185978 0.574
-0.002190355 0.1185978 0.574
-0.000694701 0.1183912 0.573
0.0007971374 0.1183912 0.573
0.002288976 0.1183912 0.573
0.003780814 0.1183912 0.573
0.005272652 0.1183912 0.573
0.006764491 0.1183912 0.573
0.008256329 0.1183912 0.573
0.009748167 0.1183912 0.573
0.01125962 0.1185978 0.574
-0.003678378 0.119883 0.573
-0.002186539 0.119883 0.573
-0.000694701 0.119883 0.573
0.01273184 0.119883 0.573
-0.006673681 0.1200923 0.574
-0.005179239 0.1200923 0.574
0.01424851 0.1200923 0.574
-0.009662564 0.1215867 0.574
-0.008168123 0.1215867 0.574
-0.006673681 0.1215867 0.574
-0.005170216 0.1213749 0.573
-0.003678378 0.1213749 0.573
0.01422368 0.1213749 0.573
0.01574295 0.1215867 0.574
-0.008153893 0.1228667 0.573
-0.006662054 0.1228667 0.573
-0.005170216 0.1228667 0.573
-0.01115701 0.1230811 0.574
-0.009662564 0.1230811 0.574
0.01723739 0.1230811 0.574
-0.01265145 0.1245756 0.574
-0.01115701 0.1245756 0.574
-0.009645731 0.1243586 0.573
-0.008153893 0.1243586 0.573
-0.006662054 0.1243586 0.573
0.01720736 0.1243586 0.573
-0.009645731 0.1258504 0.573
-0.008153893 0.1258504 0.573
0.01720736 0.1258504 0.573
-0.01265145 0.12607 0.574
-0.01115701 0.12607 0.574
-0.01265145 0.1275645 0.574
-0.01113757 0.1273422 0.573
-0.009645731 0.1273422 0.573
0.01720736 0.1273422 0.573
-0.01113757 0.1288341 0.573
-0.009645731 0.1288341 0.573
0.01720736 0.1288341 0.573
-0.01265145 0.1290589 0.574
0.01873183 0.1290589 0.574
-0.01265145 0.1305533 0.574
-0.01115701 0.1305533 0.574
-0.009645731 0.1303259 0.573
0.01723739 0.1305533 0.574
-0.009645731 0.1318177 0.573
0.01571552 0.1318177 0.573
-0.01115701 0.1320478 0.574
0.01723739 0.1320478 0.574
-0.01115701 0.1335422 0.574
-0.009645731 0.1333096 0.573
-0.008153893 0.1333096 0.573
0.01422368 0.1333096 0.573
0.01574295 0.1335422 0.574
-0.005170216 0.1348014 0.573
-0.003678378 0.1348014 0.573
0.008256329 0.1348014 0.573
0.009748167 0.1348014 0.573
0.01124001 0.1348014 0.573
-0.008168123 0.1350367 0.574
-0.006673681 0.1350367 0.574
0.01275406 0.1350367 0.574
0.01424851 0.1350367 0.574
-0.005179239 0.1365311 0.574
-0.003684797 0.1365311 0.574
-0.002190355 0.1365311 0.574
-0.000694701 0.1362933 0.573
0.0007971374 0.1362933 0.573
0.00229297 0.1365311 0.574
0.003787412 0.1365311 0.574
0.005281854 0.1365311 0.574
0.006776296 0.1365311 0.574
0.008270739 0.1365311 0.574
0.0007999198 0.1158104 0.575
-0.003691217 0.1173074 0.575
0.006788102 0.1173074 0.575
-0.006685308 0.1188044 0.575
-0.005188263 0.1188044 0.575
-0.008182354 0.1203015 0.575
-0.01117645 0.1217985 0.575
-0.01267349 0.1232956 0.575
-0.01417054 0.1247926 0.575
0.01876447 0.1247926 0.575
-0.01417054 0.1262897 0.575
0.01876447 0.1262897 0.575
-0.01417054 0.1277867 0.575
0.01876447 0.1277867 0.575
-0.01417054 0.1292838 0.575
-0.01417054 0.1307808 0.575
0.01876447 0.1307808 0.575
-0.01267349 0.1322778 0.575
-0.009679398 0.135272 0.575
-0.006685308 0.136769 0.575
0.009782193 0.136769 0.575
0.01127924 0.136769 0.575
0.0007999198 0.138266 0.575
-0.003697637 0.1145121 0.576
-0.0006983381 0.1145121 0.576
-0.005197286 0.1160118 0.576
-0.003697637 0.1160118 0.576
-0.002197987 0.1160118 0.576
-0.0006983381 0.1160118 0.576
0.00230096 0.1160118 0.576
0.003800609 0.1160118 0.576
-0.006696934 0.1175114 0.576
-0.005197286 0.1175114 0.576
0.008299557 0.1175114 0.576
-0.009696232 0.1190111 0.576
-0.008196584 0.1190111 0.576
0.0127985 0.1190111 0.576
-0.01269553 0.1205107 0.576
-0.01119588 0.1205107 0.576
-0.009696232 0.1205107 0.576
0.0157978 0.1205107 0.576
-0.01569483 0.1220104 0.576
-0.01419518 0.1220104 0.576
-0.01269553 0.1220104 0.576
0.01729745 0.1220104 0.576
-0.01569483 0.12351 0.576
-0.01419518 0.12351 0.576
0.0187971 0.12351 0.576
-0.01719448 0.1250097 0.576
-0.01569483 0.1250097 0.576
-0.01719448 0.1265093 0.576
-0.01569483 0.1265093 0.576
0.02029675 0.1265093 0.576
-0.01719448 0.1280089 0.576
-0.01569483 0.1280089 0.576
0.02029675 0.1280089 0.576
-0.01719448 0.1295086 0.576
-0.01569483 0.1295086 0.576
0.02029675 0.1295086 0.576
-0.01569483 0.1310083 0.576
-0.01419518 0.1325079 0.576
0.0187971 0.1325079 0.576
-0.01269553 0.1340075 0.576
0.01729745 0.1340075 0.576
-0.01119588 0.1355072 0.576
0.0157978 0.1355072 0.576
-0.008196584 0.1370068 0.576
0.0127985 0.1370068 0.576
-0.005197286 0.1385065 0.576
-0.003697637 0.1385065 0.576
-0.002197987 0.1385065 0.576
-0.0006983381 0.1385065 0.576
0.00230096 0.1385065 0.576
0.003800609 0.1385065 0.576
0.005300258 0.1385065 0.576
0.006799907 0.1385065 0.576
-0.006708561 0.1147109 0.577
-0.005206308 0.1147109 0.577
-0.002201803 0.1147109 0.577
0.0008027021 0.1147109 0.577
-0.009713066 0.1162132 0.577
-0.008210814 0.1162132 0.577
-0.006708561 0.1162132 0.577
0.00530946 0.1162132 0.577
-0.01121532 0.1177154 0.577
-0.009713066 0.1177154 0.577
-0.008210814 0.1177154 0.577
0.009816218 0.1177154 0.577
-0.01421982 0.1192177 0.577
-0.01271757 0.1192177 0.577
-0.01121532 0.1192177 0.577
-0.01572208 0.1207199 0.577
-0.01421982 0.1207199 0.577
-0.01722433 0.1222222 0.577
-0.01872658 0.1237244 0.577
-0.01722433 0.1237244 0.577
-0.01872658 0.1252267 0.577
0.02033199 0.1252267 0.577
-0.02022883 0.1267289 0.577
-0.01872658 0.1267289 0.577
-0.02022883 0.1282312 0.577
-0.01872658 0.1282312 0.577
-0.01872658 0.1297334 0.577
-0.01722433 0.1312357 0.577
0.02033199 0.1312357 0.577
-0.01722433 0.1327379 0.577
-0.01572208 0.1327379 0.577
-0.01421982 0.1342402 0.577
0.01882973 0.1342402 0.577
-0.01271757 0.1357425 0.577
0.01732748 0.1357425 0.577
-0.009713066 0.1372447 0.577
0.01432298 0.1372447 0.577
-0.008210814 0.1387469 0.577
-0.006708561 0.1387469 0.577
0.008313965 0.1387469 0.577
0.009816218 0.1387469 0.577
-0.002201803 0.1402492 0.577
-0.0006995506 0.1402492 0.577
0.0008027021 0.1402492 0.577
0.002304955 0.1402492 0.577
0.003807207 0.1402492 0.577
0.00530946 0.1402492 0.577
-0.081963 0.101366 0.578
-0.07293385 0.1043757 0.578
-0.009729899 0.1134049 0.578
-0.006720188 0.1134049 0.578
-0.005215331 0.1134049 0.578
-0.003710475 0.1134049 0.578
-0.002205619 0.1134049 0.578
-0.01123476 0.1149097 0.578
-0.009729899 0.1149097 0.578
-0.008225044 0.1149097 0.578
0.002308949 0.1149097 0.578
-0.01424447 0.1164146 0.578
-0.01273961 0.1164146 0.578
-0.01123476 0.1164146 0.578
0.006823518 0.1164146 0.578
-0.01574932 0.1179194 0.578
-0.01424447 0.1179194 0.578
-0.01273961 0.1179194 0.578
0.01133809 0.1179194 0.578
-0.01725418 0.1194243 0.578
-0.01574932 0.1194243 0.578
0.0143478 0.1194243 0.578
-0.02026389 0.1209291 0.578
-0.01875904 0.1209291 0.578
-0.01725418 0.1209291 0.578
0.01735751 0.1209291 0.578
-0.02176875 0.122434 0.578
-0.02026389 0.122434 0.578
-0.01875904 0.122434 0.578
-0.02176875 0.1239389 0.578
-0.02026389 0.1239389 0.578
0.02036722 0.1239389 0.578
-0.02176875 0.1254437 0.578
-0.02026389 0.1254437 0.578
-0.02176875 0.1269486 0.578
0.02187208 0.1269486 0.578
-0.02176875 0.1284534 0.578
0.02187208 0.1284534 0.578
-0.02026389 0.1299583 0.578
0.02187208 0.1299583 0.578
-0.01875904 0.1314631 0.578
-0.01875904 0.132968 0.578
0.02036722 0.132968 0.578
-0.01574932 0.1344728 0.578
-0.01424447 0.1359777 0.578
-0.01123476 0.1374826 0.578
0.01585265 0.1374826 0.578
-0.009729899 0.1389874 0.578
0.01133809 0.1389874 0.578
0.01284294 0.1389874 0.578
-0.005215331 0.1404923 0.578
-0.003710475 0.1404923 0.578
0.006823518 0.1404923 0.578
0.008328374 0.1404923 0.578
-0.01125419 0.1136011 0.5790001
-0.008239275 0.1136011 0.5790001
-0.0007019754 0.1136011 0.5790001
-0.01426911 0.1151085 0.5790001
-0.01276165 0.1151085 0.5790001
0.003820404 0.1151085 0.5790001
-0.01577657 0.116616 0.5790001
0.008342784 0.116616 0.5790001
-0.01879149 0.1181234 0.5790001
-0.01728403 0.1181234 0.5790001
-0.02029895 0.1196309 0.5790001
-0.01879149 0.1196309 0.5790001
0.01588008 0.1196309 0.5790001
-0.02331387 0.1211384 0.5790001
-0.02180641 0.1211384 0.5790001
-0.02331387 0.1226458 0.5790001
0.018895 0.1226458 0.5790001
-0.02331387 0.1241533 0.5790001
-0.02331387 0.1256607 0.5790001
0.02190992 0.1256607 0.5790001
-0.02331387 0.1271682 0.5790001
-0.02180641 0.1301831 0.5790001
-0.02029895 0.1316906 0.5790001
0.02190992 0.1316906 0.5790001
0.02190992 0.1331981 0.5790001
-0.01728403 0.1347055 0.5790001
0.02040246 0.1347055 0.5790001
-0.01577657 0.136213 0.5790001
0.018895 0.136213 0.5790001
-0.01276165 0.1377204 0.5790001
0.01738754 0.1377204 0.5790001
-0.01125419 0.1392279 0.5790001
0.01437262 0.1392279 0.5790001
-0.008239275 0.1407353 0.5790001
-0.006731815 0.1407353 0.5790001
0.009850243 0.1407353 0.5790001
0.0113577 0.1407353 0.5790001
-0.005224355 0.1422428 0.5790001
-0.003716895 0.1422428 0.5790001
-0.002209435 0.1422428 0.5790001
-0.0007019754 0.1422428 0.5790001
0.0008054845 0.1422428 0.5790001
0.002312944 0.1422428 0.5790001
0.003820404 0.1422428 0.5790001
0.005327864 0.1422428 0.5790001
0.006835324 0.1422428 0.5790001
-0.07620636 0.1047369 0.58
-0.07469629 0.1047369 0.58
-0.01429376 0.1122872 0.58
-0.0127837 0.1122872 0.58
-0.01127363 0.1122872 0.58
-0.009763568 0.1122872 0.58
-0.008253505 0.1122872 0.58
-0.006743441 0.1122872 0.58
-0.01429376 0.1137973 0.58
-0.0127837 0.1137973 0.58
0.0008068756 0.1137973 0.58
-0.01731388 0.1153073 0.58
-0.01580382 0.1153073 0.58
-0.02033401 0.1168174 0.58
-0.01882395 0.1168174 0.58
-0.01731388 0.1168174 0.58
-0.02184407 0.1183275 0.58
-0.02033401 0.1183275 0.58
0.01288738 0.1183275 0.58
-0.0248642 0.1198375 0.58
-0.02335414 0.1198375 0.58
-0.02184407 0.1198375 0.58
-0.02637427 0.1213476 0.58
-0.0248642 0.1213476 0.58
-0.02637427 0.1228577 0.58
-0.0248642 0.1228577 0.58
-0.02637427 0.1243677 0.58
-0.0248642 0.1243677 0.58
-0.0248642 0.1258778 0.58
-0.0248642 0.1273878 0.58
-0.02335414 0.1288979 0.58
0.02345783 0.1288979 0.58
-0.02335414 0.130408 0.58
0.02345783 0.130408 0.58
-0.02184407 0.131918 0.58
-0.02033401 0.1334281 0.58
-0.01882395 0.1349382 0.58
0.02194776 0.1349382 0.58
-0.01731388 0.1364482 0.58
0.0204377 0.1364482 0.58
-0.01429376 0.1379583 0.58
0.01892764 0.1379583 0.58
-0.0127837 0.1394683 0.58
0.01590751 0.1394683 0.58
-0.01127363 0.1409784 0.58
-0.009763568 0.1409784 0.58
0.01288738 0.1409784 0.58
-0.008253505 0.1424885 0.58
-0.006743441 0.1424885 0.58
0.008357192 0.1424885 0.58
0.009867256 0.1424885 0.58
-0.01583107 0.1124808 0.581
-0.005242401 0.1124808 0.581
-0.003729734 0.1124808 0.581
-0.0188564 0.1139935 0.581
-0.01734374 0.1139935 0.581
-0.01583107 0.1139935 0.581
-0.02188173 0.1155061 0.581
-0.02036907 0.1155061 0.581
-0.0188564 0.1155061 0.581
0.005346267 0.1155061 0.581
-0.02490707 0.1170188 0.581
-0.0233944 0.1170188 0.581
-0.02188173 0.1170188 0.581
0.009884268 0.1170188 0.581
-0.02641974 0.1185315 0.581
-0.02490707 0.1185315 0.581
-0.0233944 0.1185315 0.581
-0.0279324 0.1200441 0.581
-0.02641974 0.1200441 0.581
-0.02944507 0.1215568 0.581
-0.0279324 0.1215568 0.581
0.01896027 0.1215568 0.581
-0.02944507 0.1230695 0.581
-0.0279324 0.1230695 0.581
0.02047294 0.1230695 0.581
-0.0279324 0.1245821 0.581
0.0219856 0.1245821 0.581
-0.02641974 0.1260948 0.581
-0.02641974 0.1276075 0.581
0.02349827 0.1276075 0.581
-0.02490707 0.1291201 0.581
0.02349827 0.1321455 0.581
-0.02188173 0.1336581 0.581
0.02349827 0.1336581 0.581
-0.02036907 0.1351708 0.581
-0.0188564 0.1366835 0.581
0.0219856 0.1366835 0.581
-0.01734374 0.1381961 0.581
-0.01583107 0.1381961 0.581
-0.0143184 0.1397088 0.581
0.0174476 0.1397088 0.581
-0.01280574 0.1412215 0.581
0.01442227 0.1412215 0.581
0.01593494 0.1412215 0.581
-0.0781184 0.1052786 0.583
-0.02195706 0.112868 0.583
-0.02043919 0.112868 0.583
-0.01892131 0.112868 0.583
-0.01737359 0.1126744 0.582
-0.002220883 0.1126744 0.582
-0.0007068249 0.112868 0.583
-0.02651068 0.1143859 0.583
-0.02499281 0.1143859 0.583
-0.02347494 0.1143859 0.583
-0.02195706 0.1143859 0.583
-0.02040413 0.1141897 0.582
0.002324928 0.1141897 0.582
-0.02954643 0.1159037 0.583
-0.02802856 0.1159037 0.583
-0.02651068 0.1159037 0.583
-0.02499281 0.1159037 0.583
-0.02343467 0.1157049 0.582
0.006882545 0.1159037 0.583
-0.03410005 0.1174216 0.583
-0.03258218 0.1174216 0.583
-0.0310643 0.1174216 0.583
-0.02954643 0.1174216 0.583
-0.02802856 0.1174216 0.583
-0.02646521 0.1172202 0.582
0.01143617 0.1174216 0.583
-0.03410005 0.1189395 0.583
-0.03258218 0.1189395 0.583
-0.0310643 0.1189395 0.583
-0.02949575 0.1187355 0.582
-0.02798048 0.1187355 0.582
0.01444709 0.1187355 0.582
-0.03561793 0.1204574 0.583
-0.03410005 0.1204574 0.583
-0.03258218 0.1204574 0.583
-0.03101102 0.1202507 0.582
-0.02949575 0.1202507 0.582
0.01747763 0.1202507 0.582
-0.03410005 0.1219752 0.583
-0.03258218 0.1219752 0.583
-0.03101102 0.121766 0.582
-0.03258218 0.1234931 0.583
-0.0310643 0.1234931 0.583
-0.02949575 0.1247966 0.582
-0.0310643 0.125011 0.583
-0.02954643 0.1265289 0.583
-0.02798048 0.1263118 0.582
0.02353871 0.1263118 0.582
-0.02802856 0.1280467 0.583
-0.02651068 0.1295646 0.583
-0.02494994 0.1308576 0.582
0.02509703 0.1310825 0.583
-0.02343467 0.1323729 0.582
-0.02347494 0.1341182 0.583
-0.02195706 0.1356361 0.583
0.02357916 0.1356361 0.583
-0.02043919 0.137154 0.583
-0.01892131 0.1386718 0.583
0.02050817 0.138434 0.582
0.02206128 0.1386718 0.583
0.0189929 0.1399493 0.582
0.02054341 0.1401897 0.583
-0.01287186 0.1115411 0.5840001
-0.01135138 0.1115411 0.5840001
-0.009830902 0.1115411 0.5840001
-0.008310426 0.1115411 0.5840001
-0.006789948 0.1115411 0.5840001
-0.02807663 0.1130616 0.5840001
-0.02655616 0.1130616 0.5840001
-0.02503568 0.1130616 0.5840001
-0.0235152 0.1130616 0.5840001
-0.03263807 0.1145821 0.5840001
-0.03111759 0.1145821 0.5840001
-0.02959711 0.1145821 0.5840001
-0.02807663 0.1145821 0.5840001
0.003853396 0.1145821 0.5840001
-0.03415854 0.1161026 0.5840001
-0.03263807 0.1161026 0.5840001
-0.03111759 0.1161026 0.5840001
0.008414828 0.1161026 0.5840001
-0.0371995 0.117623 0.5840001
-0.03567902 0.117623 0.5840001
-0.03871997 0.1191435 0.5840001
-0.0371995 0.1191435 0.5840001
-0.03567902 0.1191435 0.5840001
0.01601722 0.1191435 0.5840001
-0.0371995 0.120664 0.5840001
-0.03567902 0.1221845 0.5840001
-0.03415854 0.1237049 0.5840001
0.02209913 0.1237049 0.5840001
-0.03263807 0.1252254 0.5840001
0.0236196 0.1252254 0.5840001
-0.02959711 0.1282664 0.5840001
-0.02807663 0.1297869 0.5840001
0.02514008 0.1297869 0.5840001
-0.02655616 0.1313073 0.5840001
-0.02503568 0.1328278 0.5840001
0.02514008 0.1328278 0.5840001
0.02514008 0.1343483 0.5840001
-0.02199472 0.1373892 0.5840001
0.0236196 0.1373892 0.5840001
0.0236196 0.1389097 0.5840001
-0.07990947 0.1056398 0.585
-0.01746314 0.1117321 0.585
-0.01594006 0.1117321 0.585
-0.01441698 0.1117321 0.585
-0.005278493 0.1117321 0.585
-0.03421703 0.1132552 0.585
-0.03269395 0.1132552 0.585
-0.03117087 0.1132552 0.585
-0.02964779 0.1132552 0.585
0.0008138314 0.1132552 0.585
-0.03574011 0.1147783 0.585
-0.03421703 0.1147783 0.585
-0.03878628 0.1163014 0.585
-0.0372632 0.1163014 0.585
-0.03574011 0.1163014 0.585
-0.04030936 0.1178244 0.585
-0.03878628 0.1178244 0.585
0.01299848 0.1178244 0.585
-0.04030936 0.1193475 0.585
-0.04030936 0.1208706 0.585
-0.03878628 0.1208706 0.585
-0.03878628 0.1223937 0.585
-0.0372632 0.1223937 0.585
0.02061389 0.1223937 0.585
-0.0372632 0.1239168 0.585
-0.03574011 0.1239168 0.585
-0.03421703 0.1254398 0.585
-0.03117087 0.1269629 0.585
0.02518313 0.128486 0.585
-0.02812471 0.1315322 0.585
-0.02660163 0.1330553 0.585
-0.02507855 0.1345783 0.585
-0.02355547 0.1361014 0.585
0.02518313 0.1361014 0.585
0.02518313 0.1376245 0.585
-0.07394332 0.1073461 0.586
-0.02207005 0.1119231 0.586
-0.02054436 0.1119231 0.586
-0.01901868 0.1119231 0.586
-0.003761831 0.1119231 0.586
-0.002236147 0.1119231 0.586
-0.03732689 0.1134488 0.586
-0.03580121 0.1134488 0.586
-0.04037827 0.1149745 0.586
-0.03885258 0.1149745 0.586
-0.03732689 0.1149745 0.586
0.005392277 0.1149745 0.586
-0.04190395 0.1165002 0.586
-0.04037827 0.1165002 0.586
0.00996933 0.1165002 0.586
-0.04190395 0.1180259 0.586
-0.04190395 0.1195515 0.586
-0.04190395 0.1210772 0.586
0.01912344 0.1210772 0.586
-0.04037827 0.1226029 0.586
-0.03885258 0.1241286 0.586
-0.03732689 0.1256543 0.586
-0.03580121 0.1256543 0.586
-0.03274984 0.12718 0.586
0.02522618 0.12718 0.586
-0.03122416 0.1287056 0.586
-0.02969847 0.1302313 0.586
0.02675186 0.131757 0.586
0.02675186 0.1332827 0.586
-0.0266471 0.1348084 0.586
-0.02512142 0.1363341 0.586
-0.08338103 0.1046506 0.588
-0.0726648 0.1061815 0.588
-0.07878836 0.1077124 0.588
-0.07254121 0.1075292 0.587
-0.0343925 0.1123051 0.588
-0.03286161 0.1123051 0.588
-0.03133072 0.1123051 0.588
-0.02979983 0.1123051 0.588
-0.02826894 0.1123051 0.588
-0.02669257 0.1121141 0.587
-0.02516429 0.1121141 0.587
-0.023636 0.1121141 0.587
-0.04204696 0.113836 0.588
-0.04044717 0.1136424 0.587
-0.03891888 0.1136424 0.587
0.002344902 0.1136424 0.587
-0.04357785 0.1153669 0.588
-0.04197545 0.1151707 0.587
-0.04510874 0.1168978 0.588
-0.04350374 0.116699 0.587
-0.04510874 0.1184287 0.588
-0.04350374 0.1182273 0.587
0.01459603 0.1184287 0.588
-0.04510874 0.1199595 0.588
-0.04350374 0.1197555 0.587
0.01765781 0.1199595 0.588
-0.04357785 0.1214904 0.588
-0.04204696 0.1230213 0.588
0.02225049 0.1230213 0.588
-0.04051607 0.1245522 0.588
-0.03898518 0.1260831 0.588
-0.0359234 0.127614 0.588
-0.03433402 0.127397 0.587
-0.03286161 0.1291449 0.588
-0.03133072 0.1306758 0.588
0.02679751 0.1304536 0.587
-0.02974915 0.1319818 0.587
-0.02822086 0.1335101 0.587
0.02679751 0.1350384 0.587
0.02679751 0.1365667 0.587
-0.03905148 0.1124961 0.589
-0.03751799 0.1124961 0.589
-0.03598449 0.1124961 0.589
-0.0007140993 0.1124961 0.589
-0.04518546 0.1140296 0.589
-0.04365197 0.1140296 0.589
0.003886387 0.1140296 0.589
-0.04671896 0.1155631 0.589
-0.04518546 0.1155631 0.589
0.006953377 0.1155631 0.589
-0.04825246 0.1170966 0.589
-0.04671896 0.1170966 0.589
0.01155386 0.1170966 0.589
-0.04825246 0.1186301 0.589
-0.04671896 0.1186301 0.589
-0.04671896 0.1201636 0.589
-0.04518546 0.1216971 0.589
0.02075484 0.1216971 0.589
-0.04365197 0.1232306 0.589
-0.04211847 0.1247641 0.589
0.02382183 0.1247641 0.589
-0.04058498 0.1262975 0.589
0.02535532 0.1262975 0.589
-0.03905148 0.1278311 0.589
-0.03751799 0.1278311 0.589
-0.034451 0.1293646 0.589
0.02688882 0.1293646 0.589
-0.0329175 0.130898 0.589
-0.03138401 0.1324315 0.589
0.02842231 0.1324315 0.589
-0.02985051 0.133965 0.589
0.02842231 0.133965 0.589
-0.08520075 0.1034705 0.59
-0.07137586 0.1080788 0.59
-0.0130041 0.111151 0.59
-0.011468 0.111151 0.59
-0.008395807 0.111151 0.59
-0.006859707 0.111151 0.59
-0.04372608 0.1126871 0.59
-0.04218998 0.1126871 0.59
-0.04065388 0.1126871 0.59
0.0008207872 0.1126871 0.59
-0.04679828 0.1142232 0.59
-0.04987048 0.1157593 0.59
-0.04833438 0.1157593 0.59
0.008501282 0.1157593 0.59
-0.05140658 0.1172954 0.59
-0.04987048 0.1172954 0.59
-0.04987048 0.1188315 0.59
-0.04833438 0.1203676 0.59
-0.04679828 0.1219037 0.59
-0.04526218 0.1234398 0.59
-0.04372608 0.1249759 0.59
-0.04218998 0.126512 0.59
-0.04065388 0.1280481 0.59
0.02693447 0.1280481 0.59
-0.03758169 0.1295842 0.59
-0.03604558 0.1295842 0.59
0.02847057 0.1311203 0.59
-0.01610355 0.1113394 0.591
-0.01456485 0.1113394 0.591
-0.009948738 0.1113394 0.591
-0.005332632 0.1113394 0.591
-0.04533889 0.1128781 0.591
-0.0484163 0.1144168 0.591
-0.0514937 0.1159555 0.591
-0.05303241 0.1174942 0.591
-0.0514937 0.1190329 0.591
0.0162092 0.1190329 0.591
-0.049955 0.1205716 0.591
0.01928661 0.1205716 0.591
-0.0484163 0.1221103 0.591
-0.0468776 0.123649 0.591
-0.04533889 0.1251877 0.591
-0.03456798 0.1313425 0.591
-0.08240695 0.1069039 0.592
-0.07161781 0.1069039 0.592
-0.03462647 0.1115278 0.592
-0.03308516 0.1115278 0.592
-0.03154385 0.1115278 0.592
-0.03000255 0.1115278 0.592
-0.02846124 0.1115278 0.592
-0.02691994 0.1115278 0.592
-0.02537863 0.1115278 0.592
-0.02383733 0.1115278 0.592
-0.02229602 0.1115278 0.592
-0.02075471 0.1115278 0.592
-0.01921341 0.1115278 0.592
-0.0176721 0.1115278 0.592
-0.003800348 0.1115278 0.592
-0.04849822 0.1130691 0.592
-0.04695692 0.1130691 0.592
-0.05158084 0.1146104 0.592
-0.05003953 0.1146104 0.592
0.005447487 0.1146104 0.592
-0.05466345 0.1161517 0.592
-0.05312214 0.1161517 0.592
-0.05466345 0.117693 0.592
0.01315402 0.117693 0.592
-0.05312214 0.1192343 0.592
-0.05158084 0.1207756 0.592
-0.05003953 0.1223169 0.592
-0.04849822 0.1238582 0.592
-0.04695692 0.1253995 0.592
-0.0438743 0.1269408 0.592
-0.042333 0.1284821 0.592
-0.03925039 0.1300234 0.592
0.02856708 0.1300234 0.592
-0.08409007 0.1070844 0.5930001
-0.07019488 0.1101723 0.5930001
-0.0732827 0.1117162 0.5930001
-0.04394842 0.1117162 0.5930001
-0.04240451 0.1117162 0.5930001
-0.0408606 0.1117162 0.5930001
-0.03931669 0.1117162 0.5930001
-0.03777278 0.1117162 0.5930001
-0.03622887 0.1117162 0.5930001
-0.002262858 0.1117162 0.5930001
-0.05166797 0.1132601 0.5930001
-0.05012406 0.1132601 0.5930001
0.00236887 0.1132601 0.5930001
-0.05629969 0.114804 0.5930001
-0.05475579 0.114804 0.5930001
-0.05321188 0.114804 0.5930001
-0.05784361 0.1163479 0.5930001
-0.05629969 0.1163479 0.5930001
0.01008842 0.1163479 0.5930001
-0.05629969 0.1178918 0.5930001
-0.05475579 0.1194357 0.5930001
-0.05321188 0.1209796 0.5930001
-0.05166797 0.1225235 0.5930001
0.0224397 0.1225235 0.5930001
-0.05012406 0.1240674 0.5930001
0.02398361 0.1240674 0.5930001
-0.04858015 0.1256114 0.5930001
0.02552751 0.1256114 0.5930001
-0.04703624 0.1271553 0.5930001
-0.04549232 0.1271553 0.5930001
-0.04394842 0.1286992 0.5930001
-0.0408606 0.1302431 0.5930001
-0.08577839 0.1057185 0.594
-0.06876674 0.1088115 0.594
-0.06876674 0.110358 0.594
-0.07185977 0.1119046 0.594
-0.06876674 0.1119046 0.594
-0.0517551 0.1119046 0.594
-0.05020858 0.1119046 0.594
-0.04866207 0.1119046 0.594
-0.04711556 0.1119046 0.594
-0.04556904 0.1119046 0.594
-0.0007201612 0.1119046 0.594
-0.05639463 0.1134511 0.594
-0.05484812 0.1134511 0.594
-0.05330161 0.1134511 0.594
-0.05948766 0.1149976 0.594
-0.05794115 0.1149976 0.594
0.007012405 0.1149976 0.594
-0.05948766 0.1165441 0.594
-0.05948766 0.1180906 0.594
-0.05794115 0.1180906 0.594
0.01474497 0.1180906 0.594
-0.05639463 0.1196371 0.594
0.017838 0.1196371 0.594
-0.05639463 0.1211836 0.594
-0.05484812 0.1211836 0.594
-0.05330161 0.1227302 0.594
-0.0517551 0.1242767 0.594
-0.05020858 0.1258232 0.594
-0.04866207 0.1273697 0.594
-0.04556904 0.1289162 0.594
-0.07043162 0.1120929 0.595
-0.05339134 0.1120929 0.595
-0.05958781 0.1136421 0.595
-0.05803869 0.1136421 0.595
0.003925976 0.1136421 0.595
-0.06113692 0.1151912 0.595
-0.06113692 0.1167403 0.595
0.01167156 0.1167403 0.595
-0.05803869 0.1198385 0.595
0.02096626 0.1213876 0.595
-0.05494046 0.1229368 0.595
0.02871184 0.1291332 0.595
-0.08621161 0.1031438 0.597
-0.08776593 0.1046981 0.597
-0.09087458 0.1062524 0.597
-0.08776593 0.1062524 0.597
-0.0860672 0.1076262 0.596
-0.06744655 0.1091779 0.596
-0.08141204 0.1107296 0.596
-0.06744655 0.1107296 0.596
-0.06600539 0.1109154 0.597
-0.06445107 0.1109154 0.597
-0.06289674 0.1109154 0.597
-0.06134243 0.1109154 0.597
-0.0597881 0.1109154 0.597
-0.05823378 0.1109154 0.597
-0.05667945 0.1109154 0.597
-0.05512513 0.1109154 0.597
-0.0535708 0.1109154 0.597
-0.05201648 0.1109154 0.597
-0.05046216 0.1109154 0.597
-0.04882592 0.1107296 0.596
-0.04727419 0.1107296 0.596
-0.04579918 0.1109154 0.597
-0.04424486 0.1109154 0.597
-0.03802757 0.1109154 0.597
-0.03491892 0.1109154 0.597
-0.02870163 0.1109154 0.597
-0.0271473 0.1109154 0.597
-0.02559298 0.1109154 0.597
-0.01626704 0.1109154 0.597
-0.01471271 0.1109154 0.597
-0.01315839 0.1109154 0.597
-0.01160407 0.1109154 0.597
-0.006941093 0.1109154 0.597
-0.06744655 0.1122813 0.596
-0.06600539 0.1124697 0.597
-0.06434312 0.1122813 0.596
-0.06279139 0.1122813 0.596
-0.06123967 0.1122813 0.596
-0.05968795 0.1122813 0.596
-0.05813624 0.1122813 0.596
-0.05658451 0.1122813 0.596
-0.05503279 0.1122813 0.596
-0.06434312 0.1138331 0.596
-0.06279139 0.1138331 0.596
-0.06123967 0.1138331 0.596
-0.06911404 0.1140241 0.597
-0.06755972 0.1140241 0.597
-0.06600539 0.1140241 0.597
-0.06600539 0.1155784 0.597
-0.06434312 0.1153848 0.596
-0.06279139 0.1153848 0.596
-0.06279139 0.1169365 0.596
-0.06445107 0.1171327 0.597
-0.06289674 0.118687 0.597
-0.06123967 0.1184882 0.596
0.01637376 0.118687 0.597
-0.06134243 0.1202414 0.597
-0.05968795 0.1200399 0.596
0.01948241 0.1202414 0.597
-0.0597881 0.1217957 0.597
-0.05813624 0.1215917 0.596
-0.05823378 0.12335 0.597
-0.05658451 0.1231434 0.596
0.02414538 0.12335 0.597
-0.05667945 0.1249043 0.597
-0.05503279 0.1246951 0.596
-0.05348107 0.1246951 0.596
0.0256997 0.1249043 0.597
-0.0535708 0.1264586 0.597
-0.05192935 0.1262468 0.596
-0.09258373 0.1048735 0.598
-0.0910268 0.1048735 0.598
-0.09258373 0.1064304 0.598
-0.08946987 0.1064304 0.598
-0.08635602 0.1095443 0.598
-0.06611596 0.1095443 0.598
-0.08324216 0.1111012 0.598
-0.04276205 0.1111012 0.598
-0.04120512 0.1111012 0.598
-0.03964819 0.1111012 0.598
-0.03653434 0.1111012 0.598
-0.03342048 0.1111012 0.598
-0.03186356 0.1111012 0.598
-0.03030663 0.1111012 0.598
-0.02407892 0.1111012 0.598
-0.02252199 0.1111012 0.598
-0.02096507 0.1111012 0.598
-0.01940814 0.1111012 0.598
-0.01785121 0.1111012 0.598
-0.01006657 0.1111012 0.598
-0.008509648 0.1111012 0.598
-0.07078674 0.1142151 0.598
0.01328734 0.1173289 0.598
-0.06455904 0.1188858 0.598
-0.0630021 0.1204428 0.598
-0.06144518 0.1219997 0.598
-0.05988825 0.1235566 0.598
-0.05833133 0.1251135 0.598
0.02729968 0.1266705 0.598
-0.09429808 0.1050489 0.599
-0.08961948 0.1050489 0.599
-0.09429808 0.1066084 0.599
-0.08961948 0.1081679 0.599
-0.06466699 0.1097275 0.599
-0.06310746 0.1097275 0.599
-0.06154793 0.1097275 0.599
-0.0599884 0.1097275 0.599
-0.05842887 0.1097275 0.599
-0.05686934 0.1097275 0.599
-0.05530981 0.1097275 0.599
-0.05375027 0.1097275 0.599
-0.05219075 0.1097275 0.599
-0.04907168 0.1097275 0.599
-0.07402418 0.114406 0.599
-0.07246464 0.114406 0.599
-0.06934559 0.1159656 0.599
-0.06778605 0.1159656 0.599
0.01019049 0.1159656 0.599
-0.06622653 0.1175251 0.599
-0.06622653 0.1190846 0.599
-0.06466699 0.1206442 0.599
-0.06310746 0.1222037 0.599
0.02266674 0.1222037 0.599
-0.06154793 0.1237632 0.599
-0.09289337 0.1036621 0.6
-0.09133123 0.1036621 0.6
-0.08820697 0.1036621 0.6
-0.09601764 0.1052242 0.6
-0.09289337 0.1083485 0.6
-0.06633709 0.1083485 0.6
-0.06477495 0.1083485 0.6
-0.06321281 0.1083485 0.6
-0.06165068 0.1083485 0.6
-0.06008854 0.1083485 0.6
-0.05852641 0.1083485 0.6
-0.05071574 0.1099106 0.6
-0.04759147 0.1099106 0.6
-0.04602933 0.1099106 0.6
-0.08508269 0.1114728 0.6
-0.08039629 0.1130349 0.6
-0.07570989 0.114597 0.6
-0.07102349 0.1161592 0.6
-0.06789922 0.1177213 0.6
0.01801818 0.1192834 0.6
-0.06633709 0.1208456 0.6
-0.06477495 0.1224077 0.6
-0.09461293 0.1038349 0.601
-0.08991871 0.1038349 0.601
-0.0977424 0.1053996 0.601
-0.0977424 0.1069643 0.601
-0.09617766 0.1069643 0.601
-0.09461293 0.1085291 0.601
-0.05705921 0.1085291 0.601
-0.05549448 0.1085291 0.601
-0.08835398 0.1100938 0.601
-0.04454131 0.1100938 0.601
0.007095042 0.114788 0.601
-0.06957712 0.1179175 0.601
0.01491873 0.1179175 0.601
-0.06801238 0.1194822 0.601
0.02117768 0.121047 0.601
-0.06644765 0.1226117 0.601
-0.0963377 0.1040076 0.6020001
-0.05401948 0.1087097 0.6020001
-0.04304808 0.110277 0.6020001
-0.07282758 0.1165464 0.6020001
0.01180887 0.1165464 0.6020001
-0.06812555 0.1212484 0.6020001
-0.09335784 0.1026105 0.603
-0.09806767 0.1041804 0.603
-0.09963762 0.1057504 0.603
-0.09963762 0.1073203 0.603
-0.06195894 0.1073203 0.603
-0.06038899 0.1073203 0.603
-0.05881904 0.1073203 0.603
-0.09806767 0.1088902 0.603
-0.09649772 0.1088902 0.603
-0.05253927 0.1088902 0.603
-0.05096932 0.1088902 0.603
-0.09178789 0.1104602 0.603
-0.09021795 0.1104602 0.603
-0.04154965 0.1104602 0.603
-0.0399797 0.1104602 0.603
-0.03840976 0.1104602 0.603
-0.03683981 0.1104602 0.603
-0.03526987 0.1104602 0.603
-0.03369992 0.1104602 0.603
-0.03212998 0.1104602 0.603
-0.08236822 0.1136001 0.603
-0.07765839 0.11517 0.603
-0.07451849 0.11674 0.603
-0.0713786 0.1183099 0.603
0.01653832 0.1183099 0.603
-0.06980866 0.1198799 0.603
0.01967821 0.1198799 0.603
-0.09508521 0.1027806 0.604
-0.09980285 0.1043532 0.604
-0.06677933 0.1074983 0.604
-0.06520678 0.1074983 0.604
-0.06363423 0.1074983 0.604
-0.05734404 0.1074983 0.604
-0.05577149 0.1074983 0.604
-0.09980285 0.1090708 0.604
-0.0494813 0.1090708 0.604
-0.04790875 0.1090708 0.604
-0.09351266 0.1106434 0.604
-0.02274797 0.1106434 0.604
-0.02117542 0.1106434 0.604
-0.01960287 0.1106434 0.604
-0.01803032 0.1106434 0.604
-0.08722246 0.1122159 0.604
0.0008402636 0.1122159 0.604
-0.07935972 0.115361 0.604
0.008703007 0.115361 0.604
0.01342065 0.1169336 0.604
-0.07306953 0.1185061 0.604
0.02285594 0.1216512 0.604
-0.09681778 0.1029508 0.605
-0.09855556 0.103121 0.606
-0.1032888 0.1046987 0.606
-0.1017111 0.1046987 0.606
-0.1032888 0.1062765 0.606
-0.1015432 0.1061011 0.605
-0.05911167 0.1062765 0.606
-0.1032888 0.1078542 0.606
-0.1015432 0.1076763 0.605
-0.05428867 0.1076763 0.605
-0.05280065 0.1078542 0.606
-0.1017111 0.109432 0.606
-0.04648963 0.109432 0.606
-0.09540006 0.1110097 0.606
-0.005467977 0.1110097 0.606
0.005567112 0.1139769 0.605
-0.08435576 0.1141653 0.606
-0.08120026 0.115743 0.606
0.01030958 0.115743 0.606
-0.07646699 0.1173208 0.606
0.01819836 0.1188985 0.606
-0.1002986 0.1032911 0.6070001
-0.1050396 0.1064519 0.6070001
-0.06236994 0.1064519 0.6070001
-0.06078958 0.1064519 0.6070001
-0.05762886 0.1064519 0.6070001
-0.05130742 0.1080322 0.6070001
-0.04498599 0.1096126 0.6070001
-0.0987182 0.1111929 0.6070001
-0.09713785 0.1111929 0.6070001
-0.003896641 0.1111929 0.6070001
-0.08923605 0.1127733 0.6070001
0.002424796 0.1127733 0.6070001
0.01506767 0.1175144 0.6070001
-0.09571491 0.1018783 0.608
-0.1020468 0.1034613 0.608
-0.06405565 0.1066272 0.608
-0.05614084 0.1066272 0.608
-0.1052127 0.1082102 0.608
-0.04347713 0.1097931 0.608
-0.08621714 0.114542 0.608
0.00717768 0.114542 0.608
-0.1069713 0.105217 0.609
-0.1069713 0.1068026 0.609
-0.06574658 0.1068026 0.609
-0.05464761 0.1068026 0.609
-0.04989091 0.1083882 0.609
-0.04830534 0.1083882 0.609
-0.1038002 0.1099737 0.609
-0.04196308 0.1099737 0.609
-0.04037751 0.1099737 0.609
-0.03879194 0.1099737 0.609
-0.03720637 0.1099737 0.609
-0.03562081 0.1099737 0.609
-0.03244968 0.1099737 0.609
-0.02927854 0.1099737 0.609
-0.02769298 0.1099737 0.609
-0.02610741 0.1099737 0.609
-0.100629 0.1115593 0.609
-0.0927012 0.1131449 0.609
-0.09111563 0.1131449 0.609
0.004018352 0.1131449 0.609
0.01194618 0.116316 0.609
-0.1087351 0.1053898 0.61
-0.06119017 0.1055626 0.611
-0.05959939 0.1055626 0.611
-0.05314917 0.106978 0.61
-0.1089134 0.1071533 0.611
-0.1071469 0.1085661 0.61
-0.0468732 0.1087441 0.611
-0.1055588 0.1101543 0.61
-0.03409113 0.1101543 0.61
-0.03091479 0.1101543 0.61
-0.02456211 0.1101543 0.61
-0.02297394 0.1101543 0.61
-0.02142083 0.1103349 0.611
-0.0197976 0.1101543 0.61
-0.01820943 0.1101543 0.61
-0.01662126 0.1101543 0.61
-0.01503309 0.1101543 0.61
-0.01344492 0.1101543 0.61
-0.01187619 0.1103349 0.611
-0.1039706 0.1117425 0.61
-0.1023824 0.1117425 0.61
-0.0007395595 0.1117425 0.61
-0.09444159 0.1133306 0.61
0.008789461 0.1149188 0.61
-0.1138718 0.104142 0.612
-0.1122784 0.104142 0.612
-0.110685 0.104142 0.612
-0.1090916 0.104142 0.612
-0.1122784 0.1057353 0.612
-0.110685 0.1057353 0.612
-0.0628837 0.1057353 0.612
-0.05810356 0.1057353 0.612
-0.05651019 0.1057353 0.612
-0.05173006 0.1073287 0.612
-0.1090916 0.1089221 0.612
-0.04535655 0.1089221 0.612
-0.1074983 0.1105155 0.612
-0.01030225 0.1105155 0.612
-0.008708871 0.1105155 0.612
-0.007115493 0.1105155 0.612
0.0008513929 0.1121088 0.612
0.005631525 0.1137022 0.612
-0.1156538 0.1027161 0.613
-0.09011812 0.1027161 0.613
-0.1156538 0.1043121 0.613
-0.1140578 0.1059081 0.613
-0.06458242 0.1059081 0.613
-0.05500654 0.1059081 0.613
-0.1124618 0.1075041 0.613
-0.1108659 0.1075041 0.613
-0.0502186 0.1075041 0.613
-0.1108659 0.1091001 0.613
-0.04383468 0.1091001 0.613
-0.1092699 0.1106961 0.613
-0.005531139 0.1106961 0.613
-0.09665947 0.1012851 0.614
-0.1126453 0.1028837 0.614
-0.1158425 0.1060809 0.614
-0.1142439 0.1076795 0.614
-0.04870194 0.1076795 0.614
-0.0423076 0.1092781 0.614
-0.03911043 0.1092781 0.614
-0.1000193 0.1014501 0.615
-0.09841807 0.1014501 0.615
-0.0952157 0.1014501 0.615
-0.1176323 0.1030513 0.615
-0.1112276 0.1030513 0.615
-0.1096264 0.1030513 0.615
-0.1176323 0.1046525 0.615
-0.08720976 0.1046525 0.615
-0.05358482 0.1062536 0.615
-0.1160311 0.1078548 0.615
-0.04077531 0.109456 0.615
-0.03757294 0.109456 0.615
-0.03597175 0.109456 0.615
-0.003947997 0.1110572 0.615
-0.1017857 0.1016151 0.6160001
-0.06008712 0.1048226 0.6160001
-0.05848332 0.1048226 0.6160001
-0.1178236 0.1064264 0.6160001
-0.04725678 0.1080302 0.6160001
-0.03442645 0.109634 0.6160001
-0.03282266 0.109634 0.6160001
-0.02961508 0.109634 0.6160001
-0.02801129 0.109634 0.6160001
-0.1180149 0.10178 0.617
-0.1131957 0.10178 0.617
-0.09391896 0.10178 0.617
-0.1196213 0.1033864 0.617
-0.08909977 0.1033864 0.617
-0.06339745 0.1049928 0.617
-0.06179105 0.1049928 0.617
-0.05697187 0.1049928 0.617
-0.07142942 0.1065992 0.617
-0.06982303 0.1065992 0.617
-0.05215269 0.1065992 0.617
-0.1117702 0.101945 0.618
-0.09246217 0.101945 0.618
-0.1198151 0.105163 0.618
-0.08602618 0.105163 0.618
-0.05545521 0.105163 0.618
-0.05062822 0.106772 0.618
-0.1185887 0.1006607 0.62
-0.1169745 0.1006607 0.62
-0.1234313 0.1022749 0.62
-0.1218171 0.1022749 0.62
-0.120009 0.1021099 0.619
-0.0911472 0.1022749 0.62
-0.1234313 0.1038891 0.62
-0.1218171 0.1038891 0.62
-0.06047729 0.1038891 0.62
-0.06521455 0.1053331 0.619
-0.05402047 0.1055033 0.62
-0.1203968 0.100823 0.6210001
-0.0880606 0.1040567 0.6210001
-0.05895803 0.1040567 0.6210001
-0.1238295 0.1009854 0.622
-0.1222101 0.1009854 0.622
-0.1254489 0.1026048 0.622
-0.1191625 0.09952573 0.623
-0.1175405 0.09952573 0.623
-0.1272726 0.1011477 0.623
-0.1256506 0.1011477 0.623
-0.1078084 0.1011477 0.623
-0.1013203 0.1011477 0.623
-0.09969831 0.1011477 0.623
-0.0980763 0.1011477 0.623
-0.09645428 0.1011477 0.623
-0.1276812 0.09984523 0.625
-0.1258523 0.09968548 0.624
-0.1242276 0.09968548 0.624
-0.1227995 0.09984523 0.625
-0.1209784 0.09968548 0.624
-0.1162906 0.09984523 0.625
-0.1031076 0.1013101 0.624
-0.09498448 0.1013101 0.624
