# .PCD v0.7 - Point Cloud Data file format
VERSION 0.7
FIELDS x y z
SIZE 4 4 4
TYPE F F F
COUNT 1 1 1
WIDTH 739
HEIGHT 1
VIEWPOINT 0 0 0 1 0 0 0
POINTS 739
DATA ascii
-0.01416355653084811 -0.0033016093564036675 -0.008667051531364545
-0.015251296230657768 -0.0021690149002372427 -0.010108836034998514
0.024524718278181423 -0.0021690149002402404 0.004014101919602608
-0.014918441567254137 -0.0010363453084428764 -0.011046291964029231
-0.01458560898376185 9.62491477234928e-05 -0.011983685706928704
0.028031550091681234 9.624914772027315e-05 0.0031480337691414118
-0.014252754320358219 0.0012289187395178591 -0.012921141635959421
-0.012166494790160354 0.003494182787478428 -0.01429160054715517
-0.010413067843454804 0.0046268523792726834 -0.01472466571545139
0.029362946665384415 0.004626852379269686 -0.000601727760850268
0.029695801328788046 0.005759521971064052 -0.0015391836898810407
-0.006906236029954993 0.006892116427233197 -0.015590733865912643
0.028608061628978387 0.006892116427230532 -0.0029809681935149546
-0.0051528090832494156 0.008024786019027397 -0.01602379903420892
0.027520344009080072 0.008024786019024954 -0.004422814883280224
-0.0019788319331532633 0.0091573804751936 -0.015952411255639398
0.02643260430927044 0.009157380475191379 -0.005864599386914193
-0.00022540498644768592 0.010290050066987855 -0.016385476423935674
0.02392431440607018 0.010290050066985967 -0.007810836837413848
0.002948567451840939 0.011422644523154002 -0.016314090318348407
0.004369139735142857 0.011422644523153891 -0.01580969955761391
0.019995432966741195 0.01142264452315267 -0.010261401858727481
0.021416002422958602 0.011422644523152559 -0.009757012101782314
0.006122566681848435 0.01255531411494809 -0.01624276472591013
0.007543138965150381 0.01255531411494798 -0.015738373965175634
0.008963711248452327 0.012555314114947869 -0.015233983204441137
0.01038428315480966 0.012555314114947758 -0.014729592577545247
0.011804855343875459 0.012555314114947647 -0.01422520185027043
0.013225427155996644 0.012555314114947536 -0.013720811256834164
0.014645999439298563 0.012555314114947425 -0.013216420496099668
0.01606657172260051 0.012555314114947314 -0.012712029735365171
0.017487144005902455 0.012555314114947203 -0.012207638974630675
-0.06930078826846808 -0.014965148603904299 -0.015961644789148466
-0.06787775642162255 -0.01496514860390441 -0.015456380731685981
-0.009289637439740095 -0.00929218328455561 5.885175581321622e-05
-0.007866615016509676 -0.009292183284555722 0.0005641124673111397
-0.006443583169664147 -0.009292183284555833 0.0010693765247736242
-0.005020558861710711 -0.009292183284555944 0.001574637905464471
-0.0035975336113957535 -0.009292183284556055 0.0020798996207517795
-0.0021745074187193014 -0.009292183284556166 0.002585161670635494
-0.008956208698641721 -0.008157560166433764 -0.0008802210126307997
-0.007533186275411302 -0.008157560166433875 -0.00037496030113287615
0.005274049081732263 -0.008157560166434874 0.004172398013982337
-0.011468846883915501 -0.0070230121839397475 -0.0028297530179394736
-0.010045824460685082 -0.0070230121839398585 -0.0023244923064414946
-0.013981472412893048 -0.005888389065817734 -0.004779350555343842
-0.012558449989662629 -0.005888389065817845 -0.0042740898438459185
-0.0111354181428171 -0.005888389065817956 -0.0037688257863834895
-0.015071066095025093 -0.004753765947695832 -0.006223684035285781
-0.013648043671794674 -0.004753765947695943 -0.005718423323787802
0.017658515604580316 -0.00475376594769833 0.005397335750918664
-0.017583713703913983 -0.0036192179652017598 -0.008173219386558905
-0.016160691280683565 -0.0036192179652018708 -0.007667958675060926
-0.014737659433838035 -0.003619217965201982 -0.007162694617598497
-0.01867331680966114 -0.002484594847079802 -0.00961755621246535
-0.01725028496281561 -0.002484594847079913 -0.009112292155002921
-0.018339888068562737 -0.0013499717289580104 -0.01055662898090931
-0.016916856221717208 -0.0013499717289581215 -0.010051364923446882
-0.018006481407375707 -0.00021542374646416063 -0.011495639563222027
-0.016583449560530178 -0.00021542374646427165 -0.010990375505759598
-0.016250020819431776 0.0009191993716575197 -0.011929448274203613
-0.01591661415824472 0.0020537473541513696 -0.01286845885651633
-0.014160162993915926 0.0031883704722731054 -0.01330227091346231
0.029953635785993263 0.0031883704722697748 0.002360847948583711
-0.013826734252817524 0.004322993590394897 -0.014241343681906327
0.030287064527091664 0.004322993590391566 0.001421775180139695
-0.012070295744784937 0.005457541572888636 -0.014675090206756614
-0.010313844580456144 0.006592164691010316 -0.01510890226370265
-0.008557393416127351 0.007726787809132052 -0.015542714320648687
0.029864296823629954 0.007726787809129165 -0.0019006449965234262
-0.006800954908094764 0.00886133579162579 -0.015976460845498974
0.028774681061586566 0.008861335791623126 -0.003344916290334121
-0.0036214813205355245 0.009995958909747416 -0.015905012190947032
0.027685087379454576 0.009995958909744973 -0.004789249770276116
-0.0018650522361180755 0.011130506892241154 -0.016338762061761825
0.025172439770565658 0.011130506892239045 -0.0067387851215491845
-0.00010859164817414446 0.01226513001036289 -0.016772570772743356
0.001314432659779291 0.01226513001036278 -0.01626730939205251
0.02265981424158811 0.012265130010361114 -0.008688382658953608
0.0030708866511926503 0.01339975312848446 -0.01670112044520916
0.004493912843869102 0.013399753128484349 -0.016195858395325446
0.018724168174103162 0.013399753128483238 -0.011143240238663032
0.020147194366779614 0.013399753128483127 -0.010637978188779318
-0.01094699364781579 -0.008486823943520239 0.00013213018005908683
-0.0009686395299894623 -0.00848682394352096 0.0036750612111150494
0.000456839629700001 -0.008486823943521071 0.004181194215551631
-0.013463945378955566 -0.007350247299070745 -0.0018208240982854895
-0.012038472815796647 -0.007350247299070856 -0.001314693436024028
-0.010612990829022645 -0.007350247299070967 -0.0008085594277981167
-0.01598091919000666 -0.006213745790249192 -0.0037737161904988215
-0.014555446626847768 -0.006213745790249303 -0.0032675855282374155
-0.013129964640073766 -0.006213745790249414 -0.002761451520011504
0.009677697203150287 -0.006213745790251135 0.0053366748779913875
-0.018497880344761547 -0.005077169145799698 -0.005726673814807903
-0.017072398357987517 -0.005077169145799809 -0.005220539806581992
-0.015646916371213515 -0.00507716914579992 -0.0047144057983560805
0.01428813750101185 -0.005077169145802196 0.005914384283443874
-0.019589359512742405 -0.00394059250135026 -0.007173497430891018
-0.018163877525968403 -0.003940592501350371 -0.006667363422665107
-0.016738395539194373 -0.003940592501350482 -0.0061612294144391955
-0.020680851337019468 -0.0028040909925288737 -0.008620255514878439
-0.019255378773860576 -0.0028040909925289847 -0.008114124852616977
-0.021772330505000326 -0.0016675143480794352 -0.01006707913096161
-0.020346848518226324 -0.0016675143480795462 -0.009560945122735698
0.023842998835616802 -0.0016675143480829324 0.006129175672622833
-0.02143832768620718 -0.0005309377036301632 -0.011007768738818868
-0.02001284569943318 -0.0005309377036302743 -0.010501634730592957
0.025602483641183976 -0.0005309377036337715 0.005694620072991485
-0.01967886496055138 0.0006055638051910561 -0.011442262152318916
0.02736193694322467 0.0006055638051875034 0.005260123313526988
-0.017919389578599343 0.001742140449640217 -0.011876821097914714
-0.0175853867598062 0.0028787170940895446 -0.012817510705771973
0.02945542456758496 0.002878717094085992 0.003884878106038381
-0.015825924034150396 0.004015218602910708 -0.01325200411927202
0.030457410944053076 0.006288371891805866 0.0010628714685979035
-0.011972973684134247 0.007424873400630361 -0.015061742740260675
0.030791391682934877 0.007424873400627141 0.00012224404687194435
-0.010213498302182211 0.008561450045079577 -0.015496301685856473
-0.008454013496615037 0.009698026689528738 -0.015930857285487876
0.03003391533374719 0.009698026689525852 -0.002265269177068485
-0.006694560194574317 0.010834528198349958 -0.01636535404495232
-0.005269078207800315 0.010834528198349846 -0.015859220036726407
-0.0035095934022331687 0.011971104842799063 -0.016293775636357755
0.026425462354715212 0.011971104842796731 -0.005664984885364932
-0.0017501180202811328 0.013107681487248224 -0.016728334581953552
0.023908510623575463 0.013107681487246226 -0.007617939163709508
0.025333992610349465 0.013107681487246114 -0.007111805155483597
-0.07173721771821973 -0.012578448611338389 -0.014814121136464686
-0.01713719970764535 -0.006876105261449217 -0.000742290533429002
-0.015706817441014376 -0.006876105261449328 -0.0002344166236761258
-0.014276425750768318 -0.006876105261449439 0.0002734606320412003
-0.012609259559363567 -0.007681464602484811 0.00020366535681365372
0.0016700683041918907 -0.007681464602485866 0.005273707288882656
0.0028882039493074163 -0.006876105261450716 0.006367962639375391
-0.021093204956970674 -0.005735621564344651 -0.0032098388953358814
-0.0196628226903397 -0.005735621564344762 -0.0027019649855830052
-0.01823244042370875 -0.005735621564344873 -0.002194091075830129
-0.016802048733462666 -0.005735621564344984 -0.001686213820112803
-0.015130546916280657 -0.006542934431707836 -0.001752649008435636
0.006288442523148724 -0.006542934431709446 0.005852413053176797
-0.023618850019576393 -0.0045952130028681926 -0.005169451161358529
-0.022188467752945445 -0.004595213002868304 -0.004661577251605653
-0.02075807606269936 -0.004595213002868415 -0.004153699995888327
-0.019327693796068385 -0.004595213002868526 -0.0036458260861354508
-0.017651856353109063 -0.005404479396558803 -0.003708901187553626
0.01071041390391031 -0.004595213002870802 0.0070195544593727455
-0.027574855268901743 -0.003454729305763571 -0.007636999523265353
-0.026144473002270796 -0.003454729305763682 -0.0071291256135125325
-0.02471408131202471 -0.003454729305763793 -0.006621248357795151
-0.023283699045393735 -0.003454729305763904 -0.00611337444804233
-0.021853316778762788 -0.003454729305764015 -0.005605500538289454
-0.020173143710026126 -0.004265949225781829 -0.005665215552802916
0.01533672581340853 -0.003454729305766846 0.007599257920894276
-0.027239704294719058 -0.002314245608659393 -0.008580922809949099
-0.02580932202808811 -0.0023142456086595042 -0.008073048900196278
-0.024378930337842025 -0.0023142456086596153 -0.007565171644478896
-0.022694431066943188 -0.003127419055004854 -0.00762152991805215
-0.021266498940240713 -0.003127419055004965 -0.007114525959062756
0.018715610031044022 -0.0031274190550080183 0.0070815882386045526
-0.028334945010782486 -0.0011737619115549935 -0.010032723352350226
-0.0269045533205364 -0.0011737619115551046 -0.009524846096632844
-0.025474171053905453 -0.0011737619115552156 -0.009016972186880023
-0.02378780837706912 -0.001988964019855932 -0.009070778138180802
-0.022359876250366617 -0.001988964019856043 -0.008563774179191408
0.02190602910102557 -0.0019889640198594294 0.007153351895444082
-0.02656942442626506 -3.335335007886853e-05 -0.01046870719718529
-0.025139042159634112 -3.335335007897955e-05 -0.009960833287432469
-0.023453231480581205 -0.0008504338490791796 -0.010013084585451304
-0.024803891185451454 0.0011071303470252536 -0.01090475657411627
-0.02337349949520537 0.0011071303470251426 -0.010396879318398888
-0.021356145560902873 0.0014266264924742145 -0.011390693521002915
-0.02303834852102271 0.0022476140441293757 -0.011340802605082634
-0.02127281528020908 0.003388097741233498 -0.011776851982013559
-0.019593658617623827 0.0025650815276229144 -0.011825933823152723
0.02895604311387584 0.0025650815276192507 0.005412204128450948
-0.01950730411930679 0.004528506302709678 -0.012212839172813128
-0.017741761454878047 0.005668989999813745 -0.012648885203779603
-0.015734085754666477 0.005980596904324953 -0.013638783060854198
0.031226509091753868 0.00680947369691437 0.003674947938672235
-0.013971576731476115 0.00711912707510165 -0.014074085549135307
-0.013875566078979468 0.00909036595549828 -0.014464845058193787
-0.012110023414550697 0.010230849652602403 -0.014900891089160262
0.030801557667759577 0.010230849652599128 0.00033536635499936684
-0.010344490173737064 0.011371333349706525 -0.015336940466091131
-0.008578969589219665 0.012511741911182706 -0.015772924310926306
0.02877674987255141 0.011673172622577555 -0.0031401309954293133
0.030041445845967518 0.012511741911179763 -0.002060295287954206
0.027683394642336823 0.012811702793354418 -0.004589441401689209
0.0289462145535192 0.013652225608284108 -0.003512092484390772
-0.009120061533994195 -0.007213117154169668 0.0038308529312733874
-0.007687219703819637 -0.007213117154169779 0.004339600137754196
-0.006254379758368095 -0.00721311715416989 0.004848346675042137
-0.0048215416976395975 -0.007213117154170001 0.005357092543137154
-0.003388701752188056 -0.007213117154170112 0.005865839080425095
-0.02311272651301699 -0.0060706799307369 -0.0022021492217383365
-0.021679894106457542 -0.006070679930737011 -0.001693405361221978
-0.020247052276282984 -0.006070679930737122 -0.0011846581547411694
-0.018814210446108426 -0.006070679930737233 -0.0006759109482603609
-0.02707552695166321 -0.004928242707304853 -0.004673930967277806
-0.02564268512148865 -0.004928242707304964 -0.004165183760796998
-0.024209843291314093 -0.004928242707305075 -0.003656436554316189
-0.022777001461139562 -0.004928242707305186 -0.0031476893478353807
0.007312626085004492 -0.004928242707307462 0.007535983920053613
-0.02817263430634523 -0.003785805483873028 -0.0061282149538911534
-0.02673980189978578 -0.003785805483873139 -0.005619471093374795
-0.025306960069611223 -0.0037858054838732502 -0.005110723886893986
0.011946869088513501 -0.0037858054838760813 0.008116682736627467
-0.03070261499472826 -0.0026434433960690895 -0.008091187306818515
-0.029269773164553703 -0.0026434433960692005 -0.007582440100337706
-0.03179972234941028 -0.0015010061726372648 -0.009545471293431862
-0.030366889942850833 -0.0015010061726373758 -0.009036727432915503
-0.028934048112676275 -0.0015010061726374868 -0.008527980226434695
0.01978249872433771 -0.001501006172641206 0.00876939802619725
-0.030031164890973405 -0.00035856894920566207 -0.009982267559012492
-0.02826259800892142 0.0007838682742259406 -0.010419060478628728
-0.026494053206780777 0.0019262303620295462 -0.010855791212113608
0.026521009697141745 0.001926230362025494 0.007967825313996313
-0.0247254957483439 0.003068667585461149 -0.011292587477694294
0.02828956715557862 0.0030686675854570966 0.007531029048415572
-0.021188361984239956 0.005353542032324354 -0.012166173316926654
-0.01941979510218797 0.006495979255755957 -0.01260296623654289
0.030729584141385463 0.006495979255752127 0.005203155876605414
-0.017651259723662466 0.007638341343559563 -0.01303970031599222
-0.01588269284161048 0.008780778566991165 -0.013476493235608455
0.03140101216522895 0.008780778566987557 0.0033121378105426813
0.031736737217106376 0.00992321579041927 0.0023665976844456926
-0.012009856105540423 0.012208015101658087 -0.01529555701480656
0.03097532341077533 0.012208015101654812 -3.316758809790432e-05
0.03131104846265276 0.013350452325086526 -0.000978707714194893
-0.07384810279393433 -0.010987265192542395 -0.014221924623663451
-0.013655910463257037 -0.006409777329138111 0.0028838298772650983
-0.012220618493154006 -0.006409777329138222 0.0033934470345093892
-0.010785326523050975 -0.006409777329138333 0.00390306419175368
-0.0021735681059021905 -0.006409777329138999 0.006960769477394546
-0.029107832428433345 -0.005265386579377751 -0.003669119163896839
-0.027672540458330314 -0.005265386579377862 -0.003159502006652548
-0.026237248488227283 -0.005265386579377973 -0.002649884849408257
-0.024801956518124224 -0.005265386579378084 -0.0021402676921639663
0.003903903050472751 -0.005265386579380249 0.00805208261308582
-0.030206825268964177 -0.004120995829618446 -0.005125893286651362
-0.028771533298861146 -0.004120995829618557 -0.004616276129407071
-0.03274111950321318 -0.002976605079859085 -0.0070922879126147365
-0.03130582753311015 -0.002976605079859196 -0.0065826707553704455
-0.029870526139392006 -0.002976605079859307 -0.006073050252161649
-0.033840134423655355 -0.0018322894657277766 -0.008548999849238015
-0.032404842453552324 -0.0018322894657278876 -0.008039382691993724
0.01639512222441125 -0.001832289465731607 0.009287614038170078
-0.033503835294083184 -0.0006878987159685823 -0.009496156814748247
-0.033167536164510986 0.000456492033790612 -0.010443313780258479
-0.031732244194407955 0.00045649203379050096 -0.009933696623014188
-0.031395945064835784 0.0016008827835496953 -0.010880853588524475
-0.029960653094732753 0.0016008827835495842 -0.010371236431280184
0.024580488887258056 0.001600882783545421 0.008994232273825287
-0.029624353965160555 0.0027452735333087785 -0.011318393396790472
-0.028189052571442413 0.0027452735333086675 -0.010808772893581675
-0.026417483551678556 0.0038895891474397537 -0.011246250515716316
-0.023210600481900295 0.0050339798971986705 -0.011174173166738022
0.030231539235944557 0.0061783706469538124 0.006734518069648365
-0.019331119152977694 0.008467152146476031 -0.012996409748780247
-0.017559528053302437 0.009611542896235115 -0.013433949557046188
-0.01578795903353855 0.0107558585103662 -0.01387142717918094
-0.01401636793386335 0.011900249260125284 -0.01430896698744688
0.03191301280389415 0.011900249260121787 0.0019987954282283393
0.03224931193346632 0.013044640009880981 0.0010516384627181075
-0.06810048428023788 -0.009045329207058195 -0.012578704747385427
-0.018206513643050315 -0.005606371514429942 0.0019316478857066
-0.0167687621094037 -0.005606371514430053 0.002442138339678823
-0.01533101999937217 -0.005606371514430164 0.0029526254476865965
-0.0009535527233430208 -0.005606371514431274 0.008057512922990173
0.0004841931561345436 -0.005606371514431385 0.008568001369383738
-0.032247099230558934 -0.004460027238342212 -0.004122010383152519
-0.03080935712052743 -0.004460027238342323 -0.0036115232751447457
-0.03478572909058525 -0.003313682962255371 -0.006091765096020552
-0.03334797755693861 -0.003313682962255482 -0.005581274642048328
-0.03191022602329199 -0.003313682962255593 -0.00507078418807605
0.008346672737502253 -0.003313682962258646 0.00922289732989029
-0.03588659799334981 -0.002167338686168585 -0.0075510260089518
-0.03444885588331831 -0.002167338686168696 -0.007040538900944027
0.012996784525563354 -0.0021673386861723043 0.009805589198743914
-0.03554972478608287 -0.0010209944100819102 -0.00849979981387533
-0.035212873658727245 0.0001252747303767121 -0.009448511432667561
-0.034876000451460304 0.001271619006463387 -0.010397285237591092
0.02263386299848727 0.0012716190064590016 0.010022262656044667
-0.03310138513416186 0.002417963282549951 -0.010835571934506849
-0.031326760393248276 0.003564307558636459 -0.011273855285458101
-0.02955213565233472 0.004710651834723023 -0.011712138636409353
-0.028114393542303218 0.004710651834722912 -0.01120165152840158
-0.02490202669135813 0.005856996110809365 -0.011129447771345113
0.02973234311491131 0.0058569961108052015 0.008269122560310593
-0.02312743345397103 0.007003265251267932 -0.01156767228212957
-0.021352808713057475 0.00814960952735444 -0.012005955633080878
0.032180682766832294 0.009295953803437063 0.005933350439679075
0.032517555974099235 0.010442298079523737 0.0049845766347556
-0.017466695447578506 0.011588642355614187 -0.013831299485871418
-0.01569208013028006 0.012734986631700806 -0.014269586182787175
-0.0780921852299046 -0.009750816528717954 -0.012644203339020443
-0.0676556011727231 -0.00860056519997715 -0.010010598334276088
-0.07308818706408093 -0.00745031387123507 -0.013011527240022969
-0.06699016260647706 -0.008247859106960909 -0.01151537728967178
-0.030237173266432188 -0.003999559885013437 -0.0010128526519739833
-0.0287945214529286 -0.003999559885013548 -0.0005006222964747953
-0.02735186963942504 -0.003999559885013659 1.160805902439277e-05
-0.025909217825921455 -0.00399955988501377 0.0005238384145235808
-0.024466566012417867 -0.003999559885013881 0.0010360687700228244
-0.022771827086029595 -0.004802965699721773 0.0009742428436026462
-0.02133163483606959 -0.004802965699721884 0.001485599902373902
-0.019891433162494504 -0.004802965699721995 0.0019969603071096076
-0.03711242039490875 -0.002849308556271357 -0.004526015259184446
-0.035396185439628663 -0.0036546678973067293 -0.004578388097391084
-0.03395598376605358 -0.0036546678973068403 -0.004067027692655378
0.0049294161871216435 -0.0036546678973097824 0.009739687174579514
-0.038217050845755884 -0.00169905722752961 -0.005990253098433651
-0.036498930404626956 -0.0025063700948924628 -0.0060401358004991135
-0.03932168129660299 -0.0005488058987879185 -0.007454490937682856
-0.03760168479324036 -0.0013580722924781963 -0.007501886849571593
-0.03898365993394651 0.0006014454299537175 -0.008406498421432873
-0.03726423750827865 -0.00020977449006409632 -0.008452277493908367
0.017279817334383774 0.0006014454299494432 0.01157050551882255
-0.0386456606512014 0.001751621623067301 -0.009358443719051646
-0.03692681230322828 0.000938448176722062 -0.009402605952113896
0.02050312024413603 0.0017516216230628046 0.011643020932202153
-0.03686498747504138 0.002901872951808826 -0.009798220847302475
-0.035084314298881314 0.0040521242805502955 -0.010237997975553303
0.02550712783357481 0.004052124280545688 0.011275700377164188
-0.03330364112272127 0.005202375609291765 -0.010677775103804132
-0.03152296794656123 0.00635262693803329 -0.011117552232054961
-0.02829964295689763 0.007502878266774704 -0.011045099004806547
-0.026598384684199394 0.006679937188792007 -0.011086403437312375
-0.025076308543618864 0.008653129595516118 -0.010972642431593738
-0.02329563536745885 0.009803380924257588 -0.011412419559844567
0.03168451086342228 0.008976532793615932 0.0074672080416914866
-0.021265459888500343 0.010124755460406198 -0.012403431969984224
-0.019487810929963517 0.011273053262820187 -0.012842462209585292
0.03269683063839607 0.01242135106523029 0.004616098294812465
0.03303427792335775 0.013569648867644446 0.0036657076504756914
-0.0348368452101008 -0.003196154070305268 -0.0019824570805533903
-0.03339174325666877 -0.0031961540703053792 -0.0014693567742907199
-0.0319466318796216 -0.0031961540703054903 -0.0009562531220635995
0.0012908267923501526 -0.0031961540703080438 0.010845094307769032
-0.04027867643070804 -0.0020439492152358185 -0.004988489320696288
-0.03883357447727598 -0.002043949215235874 -0.004475389014433617
0.005964743453490184 -0.0020439492152393157 0.011430776357315875
-0.04138519236740398 -0.0008917443601665909 -0.006455217296086779
-0.03994008099035681 -0.0008917443601667019 -0.005942113643859603
0.009193552224320611 -0.0008917443601704211 0.011503355992642406
-0.04249170830409996 0.0002604604949025813 -0.00792194527147716
-0.041046596927052786 0.00026046049490247025 -0.0074088416192500395
0.013867465775667637 0.0002604604948983069 0.012089036938020992
-0.04215311286374873 0.0014126653499716424 -0.00887556959464042
-0.04070800148670156 0.0014126653499715314 -0.0083624659424133
-0.04036940604635034 0.0025648702050405925 -0.00931609026557656
-0.03858569922895194 0.003717075060109598 -0.0097566109365127
0.02355390151177411 0.0037170750601048796 0.012306779189965034
-0.03680200183516866 0.004869279915178604 -0.01019713495341329
-0.03501829501777026 0.006021484770247554 -0.010637655624349485
0.02712130572295579 0.00602148477024278 0.011425734502128304
-0.03323461970389832 0.007173614489688562 -0.011078117455118774
0.02890498103682773 0.007173614489683788 0.010985272671359014
-0.03145089080658861 0.008325894480385454 -0.011518700312186159
-0.03000578885315658 0.008325894480385343 -0.011005600005923488
-0.026776980082326124 0.009478099335454238 -0.010933020370596958
0.031027305374488667 0.009478099335449797 0.009591065491128314
-0.024993295344839073 0.01063022905489519 -0.011373478855401797
-0.023209597951055788 0.01178243390996414 -0.011814002872302387
0.03314957612871183 0.01178243390995981 0.008196979337195709
-0.021425891133657393 0.012934638765033146 -0.012254523543238527
0.03348817156906306 0.012934638765028927 0.007243355014032449
-0.08057038663634358 -0.009317698543973463 -0.01110311817303683
-0.06652483385303992 -0.005855223399784837 -0.009343082579815254
-0.010839194866333779 -0.003546906636995917 0.008277418624817401
-0.009391633349358136 -0.003546906636996028 0.008791392227808004
-0.006496516911937422 -0.00354690663699625 0.009819337091614144
-0.005048955394961752 -0.003546906636996361 0.010333310694604747
-0.03945123684057056 -0.0023927482555971546 -0.0029572879056425916
-0.03800367532359489 -0.0023927482555972657 -0.002443314302651989
-0.036556113806619245 -0.0023927482555973767 -0.0019293406996613305
0.002528016242265674 -0.0023927482556003743 0.011947935606321958
-0.04200719035647585 -0.001238589874200391 -0.004940476274200412
-0.04456314387238117 -8.443149280362716e-05 -0.0069236646427581205
-0.043115582355405524 -8.443149280373818e-05 -0.006409691039767518
0.01044415796295603 -8.443149280784601e-05 0.012607319556220464
-0.04567153587131084 0.0010697268885930256 -0.008392879408325338
-0.04422397435433517 0.0010697268885929145 -0.00787890580533468
-0.043884804836289204 0.0022238852699895117 -0.008834146967911183
-0.042098073801267594 0.0033780436513859424 -0.009275414527497139
-0.040311342766245956 0.004532202032782373 -0.00971668208708304
-0.038524611731224345 0.005686360414178804 -0.01015794964666894
-0.03673788069620271 0.0068405187955752345 -0.01059921720625484
-0.03495114966118107 0.007994677176971665 -0.011040484765840797
-0.03316441862615946 0.009148835558368096 -0.011481752325426642
0.030528241002693496 0.00914883555836321 0.011133069476338353
-0.029930135497777288 0.010302993939764415 -0.011409049627986445
-0.028482564557186535 0.010302993939764304 -0.010895072679031337
0.0326541415557611 0.011457152321156183 0.009736560754175894
-0.013969799840519853 -0.0027454543486153393 0.007831244233406531
-0.012519788183615738 -0.0027454543486154503 0.008346087787160617
-0.008169741904565236 -0.0027454543486157834 0.0098906224635803
-0.003819701279683785 -0.0027454543486161165 0.01143515513242127
-0.04118031542041797 -0.0015893424408892076 -0.0029076546737690223
-0.043740604562100605 -0.0004332305331649633 -0.004894203129231445
-0.046300884280168125 0.000722881374559281 -0.006880748238729417
-0.04741116176494661 0.0018789932822834143 -0.00835245314043781
-0.04562139708868665 0.0030351051900073256 -0.008794464242708966
0.018179210051246036 0.0030351051900024406 0.01385868558211606
-0.04383164183604177 0.004191217097731237 -0.009236478690944683
0.021418986384410144 0.004191217097726241 0.013931518033598933
-0.042041886583396915 0.005347329005455148 -0.0096784931391804
-0.04025213133075203 0.006503440913179059 -0.010120507587416061
-0.03846236665449207 0.007659552820902971 -0.010562518689687272
-0.026953301249585115 0.012284000451798283 -0.010786042475403268
-0.07768232765524097 -0.0054181983623847185 -0.010887322771181485
-0.0675150573829523 -0.005418198362385496 -0.007277314855700545
-0.03163488930805172 -0.0019440020602337071 0.00222443157201474
-0.030182418087603996 -0.0019440020602338182 0.0027401484224967576
-0.028729946867156297 -0.0019440020602339292 0.0032558652729788307
-0.02727748507032368 -0.0019440020602340402 0.0037715787774963982
-0.025825013849875955 -0.0019440020602341512 0.004287295627978416
-0.024372552053043367 -0.0019440020602342623 0.004803009132496039
-0.02292008083259564 -0.0019440020602343733 0.005318725982978056
-0.021467619035763025 -0.0019440020602344843 0.005834439487495624
-0.020015147815315326 -0.0019440020602345953 0.006350156337977697
-0.0185626765948676 -0.0019440020602347063 0.006865873188459715
-0.01711021479803501 -0.0019440020602348174 0.007381586692977338
-0.015657743577587285 -0.0019440020602349284 0.007897303543459355
-0.0025855384032952566 -0.0019440020602359276 0.012538742483132803
-0.0443667749241852 -0.0007859366261812051 -0.0033754815398688853
-0.04291431312735261 -0.0007859366261813161 -0.0028597680353513177
-0.04693139969164517 0.00037212880787051983 -0.005365390082236021
-0.045478928471197444 0.0003721288078704088 -0.004849673231753948
0.006809900707224231 0.000372128807866412 0.013716085538307832
-0.049496015035489976 0.0015301942419222447 -0.007355295278638652
-0.04804354381504225 0.0015301942419221337 -0.006839578428156579
-0.04915569736205447 0.0026882596759737476 -0.008313770120041752
0.014752876136188142 0.0026882596759688626 0.01437771441977237
-0.04736290846817126 0.0038463251100251394 -0.00875652811096267
-0.045570128997903164 0.005004390544076476 -0.009199289447848147
-0.04377734010401996 0.006162455978127868 -0.009642047438769119
-0.04198455121013672 0.0073205214121792594 -0.010084805429690147
-0.040191771739868626 0.008478586846230651 -0.010527566766575625
-0.03694651162553772 0.009636652280281877 -0.010454607907014468
-0.035153732155269596 0.010794717714333268 -0.010897369243899946
-0.03190848146455377 0.01195278314838455 -0.010824413730303406
0.03200009203368885 0.011952783148379664 0.011867070809510716
-0.07948000720372811 -0.004622615798938079 -0.010854614666822693
-0.06570390937817053 -0.0023025027425531697 -0.008125579003376848
-0.06827286034779267 -0.0011424837821739642 -0.010118844286684192
-0.04062936392426009 -0.0011424837821760736 -0.00030369840898369915
-0.03917444256388389 -0.0011424837821761846 0.0002128883922618563
-0.03771952120350769 -0.0011424837821762956 0.0007294751935073562
-0.03626459984313149 -0.0011424837821764067 0.0012460619947529117
-0.03480967848275529 -0.0011424837821765177 0.0017626487959984116
-0.03335475712237909 -0.0011424837821766287 0.002279235597243967
-0.0013464947329949184 -0.0011424837821790712 0.013644142547873939
-0.0475630789750108 1.753517820340944e-05 -0.0038467240960275983
-0.046108157614634604 1.7535178203298418e-05 -0.003330137294782043
0.0033591592145408855 1.753517819952366e-05 0.014233810601601338
-0.05158694188139401 0.001177554138582726 -0.006356572834615992
-0.05013202994463292 0.001177554138582615 -0.005839989379334942
-0.04867710858425675 0.001177554138582504 -0.005323402578089387
-0.05270098091425504 0.0023375730989618204 -0.007833254662642286
-0.05124605013026373 0.0023375730989617094 -0.007316664515432281
0.01131554951868241 0.0023375730989569354 0.014896561246196371
-0.05090515837913348 0.003497592059340693 -0.00827675619624857
-0.04910935469124214 0.00465761101971951 -0.008720264421783808
-0.04731354157973572 0.005817629980098382 -0.009163769301354596
-0.04551772846822927 0.006977648940477199 -0.00960727418092533
0.024318487406212952 0.00697764894047187 0.015188888932895384
-0.04372191535672282 0.008137667900856072 -0.010050779060496118
0.026114300517719402 0.008137667900850742 0.014745384053324595
-0.041926080165304996 0.009297761996862886 -0.01049434612619815
0.027910126285522113 0.009297761996857556 0.014301813641658112
-0.040130267053798546 0.010457780957241758 -0.01093785100576894
-0.038675336269807264 0.010457780957241647 -0.010421260858558934
-0.036879532581915925 0.01161779991762052 -0.010864769084094172
-0.033628798110033276 0.01277781887799928 -0.010791687162419406
-0.0816239805007575 -0.004989062565923019 -0.009862141739740427
-0.06490992464529566 -0.002665117592511368 -0.006093521124242662
-0.06456845881647064 -0.001503145105804904 -0.007055229644472194
-0.06714172333195872 -0.00034109748347027624 -0.009051917200815496
-0.06422697090773427 -0.0003410974834704983 -0.008017000350833026
-0.048195856133537524 -0.00034109748347171953 -0.0023249660408405926
-0.04673847520961774 -0.00034109748347183055 -0.0018075059428671048
-0.04528110370931307 -0.0003410974834719416 -0.0012900491908581224
-0.0438237322090084 -0.0003410974834720526 -0.0007725924388490846
-0.042366351285088616 -0.0003410974834721636 -0.0002551323408756523
-0.00010249409455090341 -0.00034109748347538327 0.014751143179549953
-0.052226504805626545 0.000820875003235022 -0.004839044817097127
-0.05076913330532187 0.000820875003234911 -0.004321588065088144
-0.0493117618050172 0.0008208750032348 -0.0038041313130791066
-0.05479979140102598 0.001982847489941708 -0.006835670187309184
-0.053342419900721305 0.001982847489941597 -0.006318213435300202
0.007867310330878952 0.001982847489936934 0.015415015319598269
-0.054458325572200955 0.003144819976648172 -0.007797378707538716
-0.054116859743375934 0.004306792463354581 -0.008759087227768247
-0.05265948824307126 0.00430679246335447 -0.008241630475759265
0.01583711362547502 0.004306792463349252 0.01607888705813093
-0.05086064149032646 0.005468764950060767 -0.008685878898015309
0.019093331878524494 0.005468764950055438 0.01615209538788387
-0.050519175661501464 0.006630737436767231 -0.009647587418244896
-0.04906180416119679 0.00663073743676712 -0.009130130666235914
-0.047262944752155756 0.007792785059101415 -0.009574444620587652
-0.04546410742302606 0.008954757545807768 -0.010018696388808257
-0.04366526067028126 0.010116730032514065 -0.0104629448110643
-0.04186642334115159 0.011278702519220418 -0.01090719657928485
-0.03861020508810212 0.012440675005926605 -0.010833988249531912
-0.06600571440906317 0.00046027966928191555 -0.00798311053043571
-0.04994761040119272 0.0004602796692806943 -0.002281493378187116
-0.05544486324653955 0.0016242808179430246 -0.005318197772944511
-0.05398503218269127 0.0016242808179429136 -0.004799867724207596
0.004408084094796733 0.0016242808179384727 0.015933289389346517
-0.05656264498025293 0.0027882068309770802 -0.006799849835359861
-0.05622060507373314 0.003952132844010969 -0.007763175195002692
0.01239130414929343 0.003952132844005751 0.016598283560202487
-0.05261687255661218 0.006279984870078581 -0.008653169162778807
0.022176391404712115 0.0074439108831068634 0.01681828108176686
-0.04901311795957988 0.00860791203177419 -0.009543225316686277
0.03118574948923339 0.013263616083903806 0.014593235649177416
-0.08335492525778376 -0.004943889283717362 -0.006281841573399893
-0.08447646853957971 -0.0037760562180284007 -0.007768470562133145
-0.08706275258869595 -0.002608223152339273 -0.009775172847094726
-0.08413328047767041 -0.002608223152339495 -0.008735029600602462
-0.08197772774420217 -0.002235906660420728 -0.009729002887961302
-0.06408772989105163 -0.0010700271210606904 -0.004463541747047717
-0.07690565616444289 9.585241830167845e-05 -0.010101287287572147
-0.0637451159068371 9.585241830067925e-05 -0.00542848394610379
-0.06259739885846746 0.0008953511803534431 -0.004353769522660145
-0.061132667514762234 0.0008953511803533321 -0.0038336995723962652
-0.059667926747441924 0.000895351180353221 -0.0033136262761678803
-0.05820320482735181 0.00089535118035311 -0.0027935596718684508
-0.05673846406003147 0.000895351180352999 -0.002273486375640066
-0.05527373271632624 0.000895351180352888 -0.0017534164253761308
-0.0538089919490059 0.0008953511803527769 -0.001233343129147746
-0.0523442606053007 0.0008953511803526659 -0.0007132731788838664
-0.050879519837980364 0.0008953511803525549 -0.0001931998826554815
-0.049414788494275136 0.0008953511803524439 0.000326870067608398
-0.047950057150569936 0.0008953511803523329 0.000846940017872333
-0.04619775088513131 9.585241829934699e-05 0.0008019127019368577
-0.04473546025773947 9.585241829923596e-05 0.0013211160474017603
-0.04355584427222403 0.0008953511803519998 0.0024071565605929823
-0.04209111292851883 0.0008953511803518888 0.0029272265108569173
-0.03623217813008284 0.0008953511803514447 0.005007509657876996
-0.03330270601905727 0.0008953511803512226 0.006047652904369261
-0.027443771220621305 0.0008953511803507785 0.00812793605138934
-0.025979030453300966 0.0008953511803506675 0.008648009347617724
-0.02451429910959574 0.0008953511803505565 0.00916807929788166
-0.015725892200134206 0.0008953511803498904 0.012288505691394003
-0.014261151432813868 0.0008953511803497793 0.012808578987622388
-0.012796420089108668 0.0008953511803496683 0.013328648937886323
-0.01133168874540344 0.0008953511803495573 0.013848718888150202
-0.006937478694142074 0.0008953511803492242 0.015408934427081522
-0.06340250192262256 0.001261731957662049 -0.006393426145159864
-0.06225421079655816 0.0020631842460422933 -0.0053203285611294615
-0.06047794893868419 0.0012617319576618269 -0.00535502949212352
-0.05901565831129235 0.0012617319576617159 -0.004835826146658562
-0.057553377107515596 0.0012617319576616048 -0.004316626147158165
-0.05609109590373884 0.0012617319576614938 -0.003797426147657712
-0.054628824123577224 0.0012617319576613828 -0.003278229494121765
-0.053166533496185386 0.0012617319576612718 -0.0027590261486568624
-0.05170425229240863 0.0012617319576611608 -0.0022398261491564653
-0.06013531287455831 0.002427686632651249 -0.006320033877310838
-0.05867302224716647 0.002427686632651138 -0.00580083053184588
-0.05721074104338972 0.002427686632651027 -0.005281630532345483
-0.06484047276576307 0.0032310924473593627 -0.007327093032222287
-0.06337574142205785 0.0032310924473592517 -0.006807023081958408
-0.061911000654737536 0.0032310924473591407 -0.006286949785730023
-0.06156781259282823 0.004398925513047991 -0.0072535088241993395
-0.059792698890343776 0.003593566172012619 -0.007284976076366911
-0.05833040826295194 0.003593566172012508 -0.006765772730901953
-0.0579877942787374 0.0047594457113738775 -0.007730714929957971
-0.059759893187213725 0.00556675857873673 -0.007699997912404777
-0.05795196435798411 0.006734591644425469 -0.008146483654645653
-0.05618289909074611 0.005925325250735136 -0.008176457129513648
0.01674950379605411 0.006734591644419807 0.01837714403617402
-0.05614403229607337 0.007902499845742206 -0.00859303827494684
-0.05437800390275482 0.00709120479009645 -0.008622199329069213
0.02002218604890027 0.007902499845736433 0.018450666058065723
-0.05433610346684373 0.009070332911430945 -0.009039524017187772
-0.05257309605846733 0.008257159465085706 -0.009068007060720584
-0.05252818406122922 0.010238165977119684 -0.009486013105393098
-0.050768191446860955 0.009423039004446965 -0.009513745914311755
0.025102765627449647 0.0102381659771138 0.018077761177883345
-0.05072025523199958 0.011405999042808423 -0.00993249884763403
-0.048963296258869665 0.010588918543808223 -0.009959488113867432
-0.04750101505509294 0.010588918543808112 -0.00944028811436698
0.026910685033064152 0.01140599904280254 0.017631272089677907
-0.047447595059064734 0.012573832108497052 -0.009858914639611083
-0.04569611986710165 0.011754798083169371 -0.0098860303139226
-0.08922925080458652 -0.0029843715612850596 -0.008781514562023529
-0.08776205989733771 -0.0029843715612851707 -0.008260571315031717
-0.08888548866498247 -0.0018145849692687288 -0.009749690439906089
-0.08595110685048485 -0.0018145849692689509 -0.00870780394592241
-0.0823291881004829 0.0005250633503914859 -0.0096023347397996
-0.06325573457709371 0.0005250633503900426 -0.002830082566798897
-0.07905104414638123 0.0016948499424075947 -0.009528624123698426
-0.04090414652321797 0.0016948499424046526 0.0040158768763384756
-0.03943695561596916 0.0016948499424045416 0.004536820123330343
-0.03796976470872035 0.0016948499424044305 0.00505776337032221
-0.03503539231783784 0.0016948499424042085 0.0060996465183414394
-0.032101010503340244 0.0016948499424039865 0.007141533012325119
-0.030633829019706516 0.0016948499424038754 0.007662472913352536
-0.029166638112457732 0.0016948499424037644 0.008183416160344403
-0.0232978839070776 0.0016948499424033203 0.010267185802347312
-0.021830692999828788 0.0016948499424032093 0.010788129049339179
-0.020363511516195087 0.0016948499424030983 0.011309068950366541
-0.018896320608946277 0.0016948499424029873 0.011830012197358408
-0.017429129701697466 0.0016948499424028762 0.012350955444350276
-0.010093184589068521 0.0016948499424023211 0.014955668333345051
-0.008626001220711804 0.00169484994240221 0.015476608903565336
-0.06662598937650152 0.004034498262067365 -0.007297498781588918
0.013289711963530737 0.006374071446093921 0.0188970379567035
-0.059725958175924354 0.007543858038115914 -0.008118260119198084
-0.05791497362554504 0.008713719765760075 -0.008565551590255627
-0.05610403000230729 0.009883506357776295 -0.009012787567110825
-0.05429307695545443 0.011053292949792515 -0.009460020198001517
-0.052482133332216685 0.012223079541808735 -0.009907256174856716
0.028557018855371652 0.0133929412694469 0.01777633750217883
-0.09105746123842473 -0.0021926869045419406 -0.008756155216948613
-0.08664852867327777 -0.0021926869045422737 -0.00719071227771817
-0.09071312502112591 -0.0010209467861981292 -0.009725947934244472
-0.08595985623868016 0.00015079333214534918 -0.009130297712309832
-0.062101231763018266 0.0013226085861153813 -0.0017511381056870556
-0.06063159071584098 0.0013226085861152703 -0.0012293249079317614
-0.05916194966866367 0.0013226085861151593 -0.0007075117101764117
-0.05769230862148639 0.0013226085861150483 -0.00018569851242106195
-0.056222667574309104 0.0013226085861149373 0.0003361146853342323
-0.05475302652713182 0.0013226085861148262 0.000857927883089582
-0.05328338547995454 0.0013226085861147152 0.0013797410808449317
-0.05181373500916214 0.0013226085861146042 0.0019015576245647314
-0.05034410338559997 0.0013226085861144932 0.0024233674763555757
-0.047404811867630264 0.0013226085861142711 0.003466997217830725
-0.06988607881780068 0.004837828941147426 -0.0077913987900710135
-0.06841642834700828 0.004837828941147315 -0.007269582246351214
-0.06513279737905864 0.006009644195118902 -0.007195814100232123
-0.06366314690826624 0.006009644195118791 -0.006673997556512323
0.009818943145058573 0.006009644195113184 0.019416675715112186
-0.06184917906740528 0.0071813843134624356 -0.007121980422017282
-0.06150484285010646 0.008353124431806247 -0.008091773139313085
-0.059690834082103905 0.009524939685777944 -0.008539811499020333
-0.0578768568176278 0.010696679804121645 -0.008987791018560842
0.022953447895198598 0.010696679804115483 0.019711951587804755
-0.0560628795531517 0.01186841992246529 -0.009435770538101351
-0.09029132195281325 -0.0025747710280983327 -0.0067156977335227075
-0.08881922134209239 -0.0025747710280984437 -0.00619301123903937
-0.08587503896788085 -0.0025747710280986658 -0.005147644942001761
-0.09289060345564634 -0.0014010773834268742 -0.008732476933233868
-0.08925656898792123 0.0009463850415434294 -0.009629988589781202
-0.06423095284181743 0.000946385041541542 -0.0007443516432101283
-0.06275885223109656 0.000946385041541431 -0.00022166514872684617
-0.06128675162037567 0.00094638504154132 0.0003010213457564359
-0.05981466043326991 0.000946385041541209 0.000823704494275268
-0.058342559822549045 0.0009463850415410979 0.0013463909887585501
-0.05687046863544326 0.0009463850415409869 0.0018690741372773267
-0.04916508355769064 0.002120078686211724 0.0035110870150912854
-0.046220891759863963 0.0021200786862115018 0.004556456658093344
-0.0447487911491431 0.0021200786862113907 0.005079143152576626
-0.08120624211164859 0.0032938474665134554 -0.00895944410884314
-0.07644504883172262 0.004467541111184359 -0.008362800874031295
-0.07168385555179663 0.005641234755855318 -0.007766157639219451
-0.06692264019195929 0.006815003536154274 -0.007169576590538906
-0.06363353809913908 0.007988697180825288 -0.007095616504245894
0.017676623077049397 0.009162390825490419 0.0206806307566913
-0.06147160424213485 0.010336159605795703 -0.00851581465527651
-0.0596545933364204 0.011509853250466884 -0.008964537717502274
-0.09212501616781832 -0.0017850398976826942 -0.006690464796525908
-0.08770136391587025 -0.0017850398976830273 -0.005119795460785614
-0.09472862387281358 -0.0006093927266836441 -0.008710600737177276
-0.09438313950012525 0.000566254444315073 -0.009683627133299622
-0.09290858874947588 0.000566254444314962 -0.009160070688052857
-0.09108854096984201 0.0017419767509415096 -0.009609606171024188
-0.055699360648717916 0.001741976750938845 0.002955735131040138
-0.05422481932168366 0.001741976750938734 0.0034792882303224526
-0.08484486301817137 0.002917623921939838 -0.00848841013212387
-0.04355748911806495 0.0029176239219367295 0.006171153604962953
0.006139096770757385 0.006444640570557214 0.020529352171049287
-0.06542280683434498 0.008796010048188196 -0.007070995833965921
0.01420283004095399 0.008796010048182146 0.021201015403749857
-0.06360277171100731 0.009971657219186802 -0.007520465784841501
0.020792014445224327 0.011147379525807188 0.021349122860396474
-0.06143723955868505 0.012323026696812178 -0.008943027663935121
-0.093963667306321 -0.0009953179132184964 -0.00666684211596541
-0.05304638605528708 0.002537634450013093 0.00456862988129958
-0.04236130252362891 0.0037152351473385137 0.007264978109764564
-0.06904007917771318 0.008425788207901463 -0.006597834112692602
0.010718053726025856 0.008425788207895413 0.021721221385540335
-0.06357086965130399 0.011958665435507776 -0.00794854347143542
-0.09171541637748465 -0.0013852069961334257 -0.004093010671676445
-0.09580714636454085 -0.00020565277247941438 -0.0066451631329109695
-0.09693995221067309 0.000973976586802372 -0.008146785086729225
-0.09659331968259524 0.0021535308104561057 -0.009123045161678056
-0.06108638186706239 0.0021535308104533857 0.0034841073124646793
-0.059606921412940966 0.0021535308104532747 0.004009407005202914
-0.05812746095881954 0.0021535308104531636 0.004534706697941093
-0.09476722670039597 0.003333085034109673 -0.009574005543888708
-0.09328776624627455 0.003333085034109562 -0.00904870585115053
-0.05186301488510134 0.0033330850341063978 0.005659635356051573
-0.050383554430979915 0.0033330850341062868 0.0061849350487897525
-0.08850274912315131 0.004512714393390904 -0.008449135725944967
-0.087023298092645 0.004512714393390793 -0.007923839379171294
-0.04116016536910752 0.004512714393387296 0.008360400906245347
-0.0396807049149861 0.004512714393387185 0.008885700598983526
-0.038201253884479786 0.004512714393387074 0.009410996945757255
-0.03672179343035836 0.004512714393386963 0.009936296638495434
-0.03524234239985205 0.004512714393386852 0.010461592985269164
-0.03376288194573063 0.004512714393386741 0.010986892678007343
-0.032283430915224315 0.00451271439338663 0.011512189024781072
-0.07893272753320107 0.006871897976325592 -0.00724992994343826
-0.07414773248998915 0.008051452199978937 -0.006650297632101454
-0.07084215697375715 0.009231081559260335 -0.006576020507705227
-0.06753661296105154 0.010410635782913846 -0.00650168454314215
0.015312908608525078 0.010410635782907574 0.022915004563190955
-0.06571050732255607 0.011590265142195355 -0.006952710457448552
0.018618474701142 0.011590265142188971 0.022989278341622732
-0.09355706659349633 -0.0005975045276733204 -0.00406871190739011
-0.09765556026634697 0.0005840783579361686 -0.00662515659242402
-0.06584103077068781 0.0029471689935240963 0.002468579868362075
-0.06435912017663792 0.0029471689935239853 0.002994749511863737
-0.062877209582588 0.0029471689935238743 0.0035209191553653985
-0.056949576630003496 0.00294716899352343 0.0056255943834075395
-0.0554676660359536 0.002947168993523319 0.006151764026909201
-0.09661391836911781 0.004128676743507642 -0.009558849521641544
-0.04919282647759651 0.004128676743504034 0.007278562340589267
-0.04771091588354659 0.004128676743503923 0.007804731984090929
-0.09033905673084938 0.005310259629116354 -0.008432113394092722
-0.02365313654029444 0.005310259629111247 0.01524550048769524
-0.022171225946244516 0.005310259629111136 0.015771670131196902
-0.02068931535219462 0.005310259629111025 0.016297839774698564
-0.019207404758144725 0.005310259629110914 0.016824009418200225
-0.08406420774887718 0.006491767379097069 -0.00730531173444815
-0.001077286478502082 0.00649176737909074 0.02216016273847632
-0.07596022891078621 0.008854858014686828 -0.006630282877759741
0.007026695563618041 0.0088548580146805 0.022835192732792664
0.011819649434921087 0.010036440900289323 0.023435760220629154
-0.06933816066674514 0.011217948650276699 -0.006481423664572994
0.02175274547283454 0.013581039285860075 0.023659081806457094
-0.09540359500945367 0.000190273076414893 -0.004046215230761985
-0.09725503312888303 0.0009780506805031064 -0.004025461801625163
-0.10136710156582637 0.0021634654831395594 -0.0065902976839351535
-0.09988033780999503 0.0021634654831394484 -0.006062404868728943
-0.10101872472475293 0.003348955421403621 -0.0075714704632550145
